# .PCD v.7 - Point Cloud Data file format
VERSION .7
FIELDS x y z
SIZE 4 4 4
TYPE F F F
COUNT 1 1 1
WIDTH 1331
HEIGHT 1
VIEWPOINT -7.06636 0.83376 16.37810 0.55452 -0.28547 -0.23500 -0.74550
POINTS 1331
DATA ascii
-32.448837 -130.011810 -117.708374
-31.916847 -130.175674 -117.741318
-31.416847 -130.296982 -117.741318
-16.299587 -130.000641 -117.809677
-33.916847 -129.423065 -117.838799
-33.451370 -129.517120 -117.709190
-32.916847 -129.806458 -117.741318
-16.426250 -129.539078 -117.734512
-34.442612 -129.015198 -117.705673
-16.916847 -129.000641 -117.964432
-16.529186 -129.000641 -117.653488
-46.416847 -128.500641 -117.862984
-45.916847 -128.500641 -117.887947
-45.416847 -128.500641 -117.865799
-44.953190 -128.516113 -117.710098
-44.416847 -128.586655 -117.652710
-43.916847 -128.753204 -117.741318
-43.416847 -128.790054 -117.741318
-42.916847 -128.752426 -117.741318
-42.416847 -128.575928 -117.651642
-41.916847 -128.569458 -117.662270
-41.416847 -128.551971 -117.674744
-40.850853 -128.507294 -117.731995
-40.416847 -128.461639 -117.795380
-35.916847 -128.419205 -117.844841
-35.424412 -128.503326 -117.734879
-34.916847 -128.774216 -117.741318
-16.840683 -128.500641 -117.803978
-47.916847 -128.000641 -118.034554
-47.406174 -127.980835 -117.751495
-46.916847 -128.217178 -117.741318
-46.416847 -128.399536 -117.741318
-45.916847 -128.180237 -117.741318
-45.416847 -128.353302 -117.741318
-39.916847 -128.338974 -117.741318
-39.416847 -128.241623 -117.741318
-38.916847 -128.074432 -117.624908
-38.416847 -128.046661 -117.675858
-37.916847 -128.058655 -117.653839
-37.416847 -128.079041 -117.644424
-36.916847 -128.084717 -117.645683
-36.416847 -128.209900 -117.741318
-16.903404 -127.927841 -117.751404
-48.916847 -127.500641 -117.975754
-48.442924 -127.515945 -117.722221
-47.916847 -127.590851 -117.688950
-17.416847 -127.500641 -118.013329
-16.988716 -127.500641 -117.689560
-49.416847 -127.000641 -117.844116
-49.301178 -127.000641 -117.741318
-48.916847 -127.287628 -117.741318
-17.398821 -126.955727 -117.753265
-49.416847 -126.917961 -117.741318
-17.821579 -126.500641 -117.805473
-19.916847 -126.000641 -118.024307
-19.416847 -126.000641 -117.970055
-18.916847 -125.895447 -117.826370
-18.334900 -125.977402 -117.757622
-17.916847 -126.246239 -117.741318
-24.416847 -125.428131 -117.847366
-23.916847 -125.457611 -117.805565
-23.459751 -125.505592 -117.733978
-22.916847 -125.559875 -117.658119
-22.416847 -125.587044 -117.627869
-21.916847 -125.697372 -117.741318
-21.416847 -125.572281 -117.642395
-20.916847 -125.546753 -117.682465
-20.416847 -125.580124 -117.651749
-19.916847 -125.585899 -117.650436
-19.416847 -125.605232 -117.643394
-26.337696 -124.988434 -117.763641
-25.916847 -125.057800 -117.639137
-25.416847 -125.231918 -117.741318
-24.916847 -125.282524 -117.741318
-27.890209 -124.480812 -117.765808
-27.416847 -124.653702 -117.741318
-26.916847 -124.814407 -117.741318
-29.392483 -123.996269 -117.753586
-28.916847 -124.171516 -117.741318
-28.416847 -124.302109 -117.741318
-31.016607 -123.534782 -117.741318
-30.416847 -123.734970 -117.741318
-29.916847 -123.851112 -117.741318
-44.166843 -123.000641 -117.741318
-32.416847 -123.025314 -117.741318
-32.481529 -123.000641 -117.741318
-31.416847 -123.398300 -117.741318
-44.140099 -122.500641 -117.741318
-44.110409 -122.000641 -117.741318
-36.416847 -122.150436 -117.741318
-36.723854 -122.000641 -117.741318
-43.916847 -121.500641 -118.233536
-44.139473 -121.500641 -117.741318
-37.416847 -121.588135 -117.741318
-37.526352 -121.500641 -117.741318
-36.916847 -121.880478 -117.741318
-44.151905 -121.000641 -117.741318
-37.916847 -121.125389 -117.741318
-38.059410 -121.000641 -117.741318
-44.110306 -120.500641 -117.741318
-38.416847 -120.720245 -117.741318
-38.651756 -120.500641 -117.741318
-43.916847 -120.000641 -118.202698
-44.086678 -120.000641 -117.741318
-39.008064 -120.098053 -117.741318
-43.916847 -119.500641 -118.141914
-44.105198 -119.500641 -117.741318
-39.416847 -119.724098 -117.741318
-39.893688 -119.491692 -117.700821
-40.416847 -119.255196 -117.741318
-40.900009 -118.988571 -117.671005
-43.916847 -118.500641 -118.001312
-43.916847 -119.000641 -118.137131
-41.446442 -118.525047 -117.741318
-43.916847 -118.000641 -118.034164
-41.916847 -118.093582 -117.741318
-42.032047 -118.000641 -117.741318
-42.416847 -117.626274 -117.741318
-42.632236 -117.500641 -117.741318
-42.916847 -117.396057 -117.741318
-43.416847 -117.302483 -117.741318
-6.416847 -152.000641 -117.539436
-5.916847 -152.500641 -117.470428
-5.916847 -152.000641 -117.405716
-7.416847 -151.500641 -117.492409
-6.899166 -151.497528 -117.243813
-6.416847 -151.575668 -117.168228
-5.916847 -151.820267 -117.241318
-5.686127 -152.000641 -117.241318
-7.916847 -151.000641 -117.537270
-7.428569 -151.029175 -117.233528
-7.856569 -150.500641 -117.283508
-7.936989 -150.054321 -117.208038
-2.916847 -150.500641 -117.388939
-2.916847 -150.000641 -117.455635
-2.697639 -150.000641 -117.241318
-2.778625 -150.500641 -117.241318
-8.416847 -149.500641 -117.365349
-8.268028 -149.500641 -117.241318
-2.884468 -149.500641 -117.271950
-8.416847 -149.000641 -117.405701
-8.182755 -149.000641 -117.241318
-2.926922 -149.086182 -117.232910
-8.011810 -148.500641 -117.241318
-3.327660 -148.500641 -117.317780
-7.916847 -148.139160 -117.241318
-7.916847 -148.000641 -117.286568
-7.879086 -148.000641 -117.241318
-3.916847 -148.000641 -117.583817
-3.583054 -148.000641 -117.241318
-3.416847 -148.230515 -117.241318
-5.416847 -147.500641 -117.507011
-4.916847 -147.461578 -117.331001
-4.392792 -147.485123 -117.258438
-3.916847 -147.719070 -117.241318
-5.416847 -147.280533 -117.241318
-15.416847 -134.000641 -117.690544
-14.916847 -133.500641 -117.607903
-24.416847 -133.487793 -117.741318
-24.393934 -132.976288 -117.266052
-24.409504 -133.500641 -117.741318
-23.916847 -133.250107 -117.241318
-23.916847 -133.500641 -117.433342
-23.495480 -133.500641 -117.241318
-14.416847 -133.000641 -117.360901
-25.376385 -132.457809 -117.279404
-24.916847 -132.699966 -117.241318
-14.416847 -132.500641 -117.423737
-14.185856 -132.500641 -117.241318
-26.428307 -132.007034 -117.211472
-25.916847 -132.214325 -117.241318
-14.315195 -132.000641 -117.317551
-27.431505 -131.506195 -117.215363
-26.916847 -131.765182 -117.241318
-14.916847 -131.500641 -117.551804
-14.406019 -131.449463 -117.248566
-28.928717 -131.013062 -117.228867
-28.416847 -131.218109 -117.241318
-27.916847 -131.318054 -117.241318
-15.416847 -131.000641 -117.621346
-14.916847 -131.000641 -117.406883
-14.519133 -131.000641 -117.184151
-30.411346 -130.497009 -117.244225
-29.916847 -130.565857 -117.120369
-29.416847 -130.772049 -117.241318
-15.416847 -130.500641 -117.466629
-14.922007 -130.507767 -117.236023
-31.916847 -130.000641 -117.471451
-31.396898 -129.975754 -117.255836
-30.916847 -130.244064 -117.241318
-15.916847 -130.000641 -117.575974
-15.397718 -129.937469 -117.251976
-32.916847 -129.500641 -117.458878
-32.443684 -129.516602 -117.214935
-31.916847 -129.764816 -117.241318
-15.916847 -129.500641 -117.406097
-15.526373 -129.500641 -117.176933
-33.916847 -128.937042 -117.294670
-33.395451 -128.977295 -117.250481
-32.916847 -129.244904 -117.241318
-15.918842 -129.004807 -117.238686
-43.916847 -128.500641 -117.463997
-43.416847 -128.431183 -117.318771
-42.916847 -128.427963 -117.334496
-34.916847 -128.423065 -117.324287
-34.665936 -128.500641 -117.241318
-34.416847 -128.638718 -117.241318
-16.416847 -128.500641 -117.475761
-16.001366 -128.500641 -117.184464
-46.916847 -128.000641 -117.454697
-46.416847 -128.000641 -117.350319
-45.916847 -128.000641 -117.631149
-45.416847 -127.925423 -117.310318
-44.946060 -128.011688 -117.222900
-44.416847 -128.074463 -117.180374
-43.916847 -128.272736 -117.241318
-42.416847 -128.255157 -117.241318
-41.916847 -128.224365 -117.241318
-41.416847 -128.213425 -117.241318
-40.916847 -128.074966 -117.150177
-40.413651 -128.001129 -117.240204
-39.916847 -127.960709 -117.282822
-39.416847 -127.942032 -117.311562
-36.416847 -128.000641 -117.497856
-35.807373 -127.973740 -117.265244
-35.416847 -128.051910 -117.190659
-16.416847 -128.000641 -117.418968
-16.035549 -128.000641 -117.162796
-47.416847 -127.500641 -117.435333
-46.966377 -127.595016 -117.219215
-46.416847 -127.816101 -117.241318
-45.916847 -127.625946 -117.241318
-38.916847 -127.809830 -117.241318
-38.416847 -127.603836 -117.126129
-37.916847 -127.605362 -117.148788
-37.416847 -127.589157 -117.168221
-36.916847 -127.582581 -117.174995
-36.416847 -127.610367 -117.150909
-16.355961 -127.500641 -117.279343
-48.916847 -127.000641 -117.556030
-48.416847 -127.000641 -117.493462
-47.900398 -126.963287 -117.249130
-47.416847 -127.257385 -117.241318
-16.916847 -127.000641 -117.467804
-16.445011 -127.112770 -117.225990
-49.416847 -126.500641 -117.468605
-48.916847 -126.500641 -117.309532
-48.389862 -126.470078 -117.250748
-17.416847 -126.500641 -117.535446
-16.899284 -126.445389 -117.250809
-49.416847 -126.018066 -117.241318
-48.916847 -126.101173 -117.221268
-17.916847 -126.000641 -117.610168
-17.357790 -125.888145 -117.269798
-21.916847 -125.414406 -117.358871
-18.916847 -125.500641 -117.477371
-18.416847 -125.500641 -117.430717
-17.891804 -125.476273 -117.252327
-25.416847 -124.967621 -117.298302
-24.920525 -125.001144 -117.239151
-24.416847 -125.032585 -117.165894
-23.916847 -125.063095 -117.102173
-23.416847 -125.210587 -117.241318
-22.916847 -125.278091 -117.241318
-22.416847 -125.314156 -117.241318
-21.416847 -125.289665 -117.241318
-20.916847 -125.250061 -117.241318
-20.416847 -125.252998 -117.241318
-19.916847 -125.263351 -117.241318
-19.416847 -125.256989 -117.241318
-18.916847 -125.279236 -117.241318
-18.416847 -125.294289 -117.241318
-27.351032 -124.491089 -117.267883
-26.916847 -124.612991 -117.241318
-26.416847 -124.742432 -117.241318
-25.916847 -124.847183 -117.241318
-44.416847 -124.500641 -117.380051
-44.416847 -124.315002 -117.241318
-44.462105 -124.500641 -117.241318
-28.914864 -123.999512 -117.243172
-28.416847 -124.151947 -117.241318
-27.916847 -124.299652 -117.241318
-30.933481 -123.506645 -117.241318
-30.416847 -123.668770 -117.241318
-29.916847 -123.774368 -117.241318
-29.416847 -123.865463 -117.241318
-31.416847 -123.313049 -117.241318
-44.204636 -122.500641 -117.241318
-36.416847 -122.000641 -117.612244
-37.416847 -121.500641 -117.601143
-36.916847 -121.500641 -117.549423
-44.183281 -121.000641 -117.241318
-37.916847 -121.114426 -117.241318
-38.055599 -121.000641 -117.241318
-37.859798 -121.000641 -117.241318
-37.416847 -121.000641 -117.540901
-44.198055 -120.500641 -117.241318
-38.416847 -120.767288 -117.241318
-38.682823 -120.500641 -117.241318
-37.971474 -120.500641 -117.241318
-37.916847 -120.634323 -117.241318
-37.916847 -120.500641 -117.268906
-44.188587 -120.000641 -117.241318
-38.916847 -120.228973 -117.241318
-39.142300 -120.000641 -117.241318
-37.916847 -120.000641 -117.486382
-38.333424 -120.000641 -117.241318
-39.916847 -119.689926 -117.241318
-40.394371 -119.480110 -117.211800
-39.416847 -119.817329 -117.241318
-39.230103 -119.500641 -117.241318
-38.916847 -119.890244 -117.241318
-38.916847 -119.500641 -117.508118
-40.916847 -119.150543 -117.241318
-41.068855 -119.000641 -117.241318
-41.416847 -118.590988 -117.241318
-41.509315 -118.500641 -117.241318
-41.916847 -118.000641 -117.279579
-41.875469 -118.000641 -117.241318
-41.416847 -117.953049 -117.241318
-42.916847 -117.000641 -117.449600
-43.183743 -117.000641 -117.241318
-43.416847 -117.243286 -117.241318
-5.416847 -152.156738 -117.241318
-5.416847 -152.000641 -117.058556
-5.024330 -152.000641 -116.741318
-5.916847 -151.429138 -116.819717
-5.441195 -151.511658 -116.716080
-6.916847 -151.000641 -116.873169
-6.677044 -151.000641 -116.741318
-6.416847 -151.081589 -116.668015
-7.416847 -150.500641 -116.985840
-7.004841 -150.500641 -116.672096
-6.916847 -150.774353 -116.741318
-2.416847 -150.920700 -116.741318
-2.356371 -150.500641 -116.810516
-2.440083 -151.000641 -116.741318
-2.342421 -150.000641 -116.824844
-7.916847 -149.500641 -117.020905
-7.485708 -149.500641 -116.682098
-7.409623 -149.965515 -116.746918
-2.354256 -149.500641 -116.807159
-7.916847 -149.000641 -116.992050
-7.641953 -149.000641 -116.741318
-2.415690 -148.995865 -116.742653
-7.916847 -148.500641 -117.117691
-7.577404 -148.500641 -116.741318
-2.916847 -148.500641 -116.933220
-2.728149 -148.500641 -116.741318
-3.416847 -148.000641 -117.022644
-3.224606 -148.000641 -116.741318
-2.916847 -148.305374 -116.741318
-3.916847 -147.529175 -116.639694
-4.061592 -147.500641 -116.741318
-3.416847 -147.859955 -116.741318
-4.916847 -147.167480 -116.741318
-4.416847 -147.337891 -116.741318
-23.894989 -132.970306 -116.766327
-23.416847 -133.316986 -116.741318
-23.416847 -133.500641 -117.133919
-23.204685 -133.500641 -116.741318
-24.897095 -132.484619 -116.760216
-24.416847 -132.693130 -116.741318
-25.926975 -132.004471 -116.726288
-25.416847 -132.194839 -116.741318
-13.916847 -132.500641 -117.008209
-13.916847 -132.000641 -117.010948
-13.518595 -132.000641 -116.662003
-13.671688 -132.500641 -116.741318
-26.949305 -131.517899 -116.658134
-26.416847 -131.811523 -116.741318
-13.916847 -131.500641 -116.945686
-13.529581 -131.500641 -116.660751
-28.416847 -130.933411 -116.830986
-27.940243 -131.014511 -116.728935
-27.416847 -131.300308 -116.741318
-13.889541 -130.885818 -116.760117
-29.453840 -130.507202 -116.731674
-28.916847 -130.720444 -116.741318
-14.416847 -130.500641 -116.952934
-13.993797 -130.500641 -116.695648
-30.788561 -129.963882 -116.786804
-30.416847 -130.065735 -116.656532
-29.916847 -130.341354 -116.741318
-14.916847 -130.000641 -117.001938
-14.419188 -130.003586 -116.738754
-31.916847 -129.500641 -117.019302
-31.422060 -129.503708 -116.734650
-14.880952 -129.400009 -116.761505
-32.916847 -129.000641 -117.031387
-32.394302 -128.994263 -116.747055
-31.916847 -129.223114 -116.741318
-15.416847 -129.000641 -116.927666
-15.014534 -129.000641 -116.681976
-34.416847 -128.500641 -117.108841
-33.916847 -128.500641 -116.976563
-33.293621 -128.459351 -116.771118
-32.916847 -128.580246 -116.681602
-15.368559 -128.500641 -116.771370
-43.916847 -128.000641 -117.010788
-43.416847 -127.903519 -116.816658
-42.916847 -127.935730 -116.795441
-42.416847 -127.913963 -116.838104
-41.916847 -128.000641 -116.993629
-41.416847 -128.000641 -116.992317
-34.916847 -128.000641 -116.946571
-34.381016 -127.976967 -116.748695
-33.916847 -128.062103 -116.704620
-15.414173 -127.958321 -116.743050
-46.416847 -127.500641 -117.049927
-45.916847 -127.500641 -117.086746
-45.416847 -127.407433 -116.826881
-44.916847 -127.451294 -116.777939
-44.420601 -127.501404 -116.740143
-43.916847 -127.581848 -116.675751
-41.916847 -127.781288 -116.741318
-41.416847 -127.775040 -116.741318
-40.916847 -127.739563 -116.741318
-40.416847 -127.554398 -116.673409
-39.996292 -127.486725 -116.756897
-39.416847 -127.471588 -116.770813
-38.916847 -127.443764 -116.800957
-35.916847 -127.500641 -116.948364
-35.392200 -127.470451 -116.751755
-34.916847 -127.616432 -116.659874
-15.916847 -127.500641 -117.021149
-15.444910 -127.500641 -116.724358
-47.416847 -127.000641 -117.068085
-46.916847 -127.000641 -116.965622
-46.382156 -126.991035 -116.745384
-45.916847 -127.079857 -116.687180
-38.416847 -127.234329 -116.741318
-37.916847 -127.053040 -116.702332
-37.416847 -127.014206 -116.731796
-36.927269 -126.998428 -116.742966
-36.416847 -127.049072 -116.706604
-35.916847 -127.122604 -116.652542
-15.916847 -127.000641 -116.911057
-15.519766 -127.000641 -116.685196
-47.916847 -126.500641 -117.043434
-47.445408 -126.522064 -116.701614
-46.916847 -126.700226 -116.741318
-16.416847 -126.500641 -117.024040
-15.901608 -126.442284 -116.749344
-49.416847 -126.000641 -117.233536
-48.416847 -126.000641 -116.988770
-48.125526 -126.000641 -116.741318
-47.916847 -126.238693 -116.741318
-16.916847 -126.000641 -117.107056
-16.283020 -126.000641 -116.803322
-48.916847 -125.500641 -117.026474
-48.619576 -125.500641 -116.741318
-48.416847 -125.719887 -116.741318
-17.416847 -125.500641 -117.060806
-16.786026 -125.458069 -116.768311
-16.416847 -125.601044 -116.695465
-48.916847 -125.315598 -116.741318
-23.416847 -124.978340 -116.790497
-22.967087 -125.003609 -116.735062
-22.416847 -125.019829 -116.703232
-21.416847 -124.982025 -116.774368
-21.850893 -125.004166 -116.734253
-20.916847 -124.963135 -116.801147
-20.416847 -124.947845 -116.819298
-19.916847 -124.943436 -116.816277
-19.416847 -124.934082 -116.828255
-18.916847 -124.924858 -116.832504
-18.416847 -124.925102 -116.831406
-17.916847 -124.948822 -116.791595
-17.453060 -125.015465 -116.720711
-44.603943 -124.500641 -116.741318
-44.916847 -124.744919 -116.741318
-26.916847 -124.464355 -116.844460
-26.453056 -124.508942 -116.681923
-25.916847 -124.622589 -116.741318
-25.416847 -124.708908 -116.741318
-24.916847 -124.806107 -116.741318
-24.416847 -124.874985 -116.741318
-23.916847 -124.914223 -116.741318
-44.416847 -124.000641 -116.891205
-44.450493 -124.000641 -116.741318
-28.506256 -124.024033 -116.741318
-27.916847 -124.190971 -116.741318
-27.416847 -124.315201 -116.741318
-44.416847 -123.899223 -116.741318
-30.916847 -123.500641 -117.139809
-30.794970 -123.500641 -116.741318
-30.416847 -123.636803 -116.741318
-29.916847 -123.716606 -116.741318
-29.416847 -123.767784 -116.741318
-28.916847 -123.905136 -116.741318
-31.416847 -123.000641 -117.107605
-35.916847 -122.500641 -116.810455
-35.916847 -122.668861 -116.741318
-36.106277 -122.500641 -116.741318
-35.416847 -122.500641 -116.791161
-35.416847 -122.709244 -116.741318
-44.416847 -122.180679 -116.741318
-44.416847 -122.500641 -116.816261
-37.916847 -121.000641 -117.089478
-38.416847 -120.500641 -116.992210
-38.916847 -120.000641 -117.107422
-38.428993 -120.000641 -116.741318
-38.416847 -120.024445 -116.741318
-40.416847 -119.660095 -116.741318
-40.619225 -119.500641 -116.741318
-39.916847 -119.500641 -116.916306
-40.132637 -119.500641 -116.741318
-39.416847 -119.500641 -117.022758
-40.916847 -119.000641 -117.144592
-40.416847 -119.000641 -116.992729
-40.416847 -119.389374 -116.741318
-39.916847 -119.000641 -116.962494
-41.416847 -118.500641 -117.152954
-41.416847 -118.000641 -117.130409
-42.916847 -117.500641 -116.965019
-42.916847 -117.544907 -116.741318
-43.142784 -117.500641 -116.741318
-4.916847 -152.000641 -116.671837
-4.844742 -151.484131 -116.267326
-4.416847 -151.702972 -116.241318
-4.416847 -152.000641 -116.430809
-5.892687 -150.992371 -116.249832
-5.416847 -151.221634 -116.241318
-6.410727 -150.479401 -116.245728
-2.416847 -151.000641 -116.715775
-1.916847 -150.500641 -116.289322
-6.916847 -150.000641 -116.416252
-6.538645 -150.000641 -116.151077
-1.916847 -150.000641 -116.362541
-1.827976 -150.000641 -116.241318
-6.913260 -149.484833 -116.244019
-1.903895 -149.402435 -116.257462
-7.416847 -149.000641 -116.529343
-6.995615 -149.000641 -116.163292
-1.964933 -149.000641 -116.179962
-7.416847 -148.500641 -116.527847
-7.128994 -148.500641 -116.241318
-2.393965 -148.446411 -116.269928
-2.895473 -147.963867 -116.264992
-3.683044 -147.500641 -116.241318
-3.416847 -147.560425 -116.145370
-3.916847 -147.397369 -116.241318
-22.916847 -133.741989 -116.741318
-22.916847 -133.403687 -116.352592
-22.443470 -133.518799 -116.206467
-22.540577 -134.000641 -116.741318
-22.416847 -134.000641 -116.633163
-21.916847 -133.860535 -116.241318
-21.916847 -134.000641 -116.360664
-21.641300 -134.000641 -116.241318
-23.417225 -133.000916 -116.240395
-24.320372 -132.474869 -116.285576
-23.916847 -132.662460 -116.241318
-25.397728 -131.981781 -116.261147
-24.916847 -132.217072 -116.241318
-13.416847 -132.500641 -116.488182
-13.042446 -132.000641 -116.241318
-26.449657 -131.513931 -116.193390
-25.916847 -131.721405 -116.241318
-12.967037 -131.500641 -116.195770
-27.451733 -131.022537 -116.154190
-26.916847 -131.361313 -116.241318
-13.416847 -131.000641 -116.473679
-13.016224 -131.000641 -116.165825
-28.916847 -130.500641 -116.489433
-28.400829 -130.482239 -116.253265
-27.916847 -130.741974 -116.241318
-13.342442 -130.500641 -116.292679
-29.784740 -129.977142 -116.261650
-29.416847 -130.038513 -116.204430
-28.916847 -130.274292 -116.241318
-13.916847 -130.000641 -116.455589
-13.440876 -130.079102 -116.229012
-30.826836 -129.471313 -116.267967
-30.416847 -129.596832 -116.160950
-14.416847 -129.500641 -116.530273
-13.905089 -129.465729 -116.247025
-31.916847 -129.000641 -116.520325
-31.413868 -128.995682 -116.243324
-14.315565 -129.000641 -116.290367
-32.416847 -128.402328 -116.304825
-32.028770 -128.536560 -116.216553
-14.916847 -128.500641 -116.495598
-14.435931 -128.584183 -116.230499
-33.416847 -128.000641 -116.521187
-32.886414 -127.948502 -116.256653
-14.916847 -128.000641 -116.408951
-14.523754 -128.000641 -116.183167
-43.416847 -127.500641 -116.522255
-42.916847 -127.500641 -116.452423
-42.416847 -127.424034 -116.313644
-41.916847 -127.430565 -116.318871
-41.416847 -127.400307 -116.342926
-40.916847 -127.500641 -116.470207
-34.416847 -127.500641 -116.465775
-33.916847 -127.371109 -116.310211
-33.421974 -127.503281 -116.238403
-14.820072 -127.500641 -116.297958
-45.416847 -127.000641 -116.514305
-44.916847 -127.000641 -116.439369
-44.416847 -126.936699 -116.287338
-43.862980 -126.993423 -116.246666
-43.416847 -127.056137 -116.197845
-42.916847 -127.251915 -116.241318
-40.916847 -127.260536 -116.241318
-40.416847 -127.079941 -116.165573
-39.924332 -126.995285 -116.243927
-39.416847 -126.925720 -116.302849
-38.916847 -127.000641 -116.406898
-38.416847 -127.000641 -116.539314
-35.416847 -127.000641 -116.456436
-34.916847 -126.914574 -116.278557
-34.447533 -127.013275 -116.229797
-14.866480 -127.000641 -116.270035
-46.916847 -126.500641 -116.583870
-46.416847 -126.500641 -116.508789
-45.916847 -126.411728 -116.289627
-45.442947 -126.511284 -116.228958
-44.916847 -126.603706 -116.175125
-38.916847 -126.619064 -116.172073
-38.339092 -126.516418 -116.231323
-37.916847 -126.424553 -116.287033
-37.416847 -126.500641 -116.411667
-36.916847 -126.500641 -116.404411
-36.416847 -126.500641 -116.389648
-35.916847 -126.451942 -116.266258
-35.464874 -126.516708 -116.225815
-15.416847 -126.500641 -116.513329
-14.930249 -126.544838 -116.225296
-47.916847 -126.000641 -116.411713
-47.588917 -126.000641 -116.241318
-47.416847 -126.034592 -116.213120
-46.916847 -126.040848 -116.213272
-46.416847 -126.055016 -116.208374
-37.416847 -126.098259 -116.192978
-36.916847 -126.070450 -116.211960
-36.416847 -126.102676 -116.193375
-15.916847 -126.000641 -116.635468
-15.287926 -126.000641 -116.315079
-48.416847 -125.500641 -116.385277
-48.275768 -125.500641 -116.241318
-47.916847 -125.842880 -116.241318
-15.916847 -125.500641 -116.442070
-15.428175 -125.514282 -116.230896
-48.416847 -125.334167 -116.241318
-16.916847 -125.000641 -116.518814
-16.283916 -124.961937 -116.270340
-15.916847 -125.081490 -116.190109
-44.916847 -124.500641 -116.498413
-45.148136 -124.500641 -116.741318
-25.916847 -124.500641 -116.373062
-25.653305 -124.500641 -116.241318
-25.416847 -124.519287 -116.185570
-24.916847 -124.664642 -116.241318
-24.416847 -124.723862 -116.241318
-23.916847 -124.732231 -116.241318
-23.416847 -124.746185 -116.241318
-22.916847 -124.788078 -116.241318
-22.416847 -124.795898 -116.241318
-21.916847 -124.776932 -116.241318
-21.416847 -124.729843 -116.241318
-20.916847 -124.648911 -116.241318
-20.416847 -124.534561 -116.181885
-19.416847 -124.497116 -116.246269
-19.794386 -124.502380 -116.238724
-18.916847 -124.484734 -116.263916
-18.416847 -124.455292 -116.297546
-17.916847 -124.477097 -116.268433
-17.514187 -124.508308 -116.232620
-16.916847 -124.596817 -116.150497
-44.916847 -124.000641 -116.491318
-28.416847 -124.000641 -116.567101
-28.036625 -124.000641 -116.241318
-27.916847 -124.032616 -116.241318
-27.416847 -124.063522 -116.241318
-26.916847 -124.240280 -116.241318
-26.416847 -124.408585 -116.241318
-25.916847 -124.462738 -116.241318
-44.416847 -123.500641 -116.570496
-35.916847 -123.625053 -116.302315
-36.387619 -123.478668 -116.219551
-35.416847 -123.500641 -116.433434
-35.416847 -123.939224 -116.206703
-34.916847 -123.500641 -116.425674
-34.916847 -123.927902 -116.204147
-34.416847 -123.500641 -116.372360
-34.416847 -123.884186 -116.183533
-33.916847 -123.500641 -116.339645
-33.916847 -123.700546 -116.241318
-33.416847 -123.500641 -116.302979
-33.416847 -123.617668 -116.241318
-32.979984 -123.500641 -116.241318
-30.416847 -123.500641 -116.657158
-29.916847 -123.500641 -116.625313
-29.416847 -123.500641 -116.622276
-28.916847 -123.500641 -116.590004
-36.416847 -123.000641 -116.426132
-36.901909 -122.986374 -116.227478
-35.916847 -123.000641 -116.613365
-35.416847 -123.000641 -116.677696
-36.916847 -122.500641 -116.445671
-37.383324 -122.436508 -116.223450
-44.416847 -122.000641 -116.673012
-44.574921 -122.000641 -116.241318
-44.604271 -122.500641 -116.241318
-37.416847 -122.000641 -116.469406
-37.687515 -122.000641 -116.241318
-44.416847 -121.500641 -116.600525
-44.589729 -121.500641 -116.241318
-38.416847 -120.500641 -116.565529
-38.416847 -120.906067 -116.241318
-38.888443 -120.421852 -116.219681
-38.916847 -120.000641 -116.426254
-39.222618 -120.000641 -116.241318
-40.416847 -119.500641 -116.563522
-43.916847 -118.500641 -116.267410
-43.798660 -118.500641 -116.241318
-43.916847 -118.549530 -116.241318
-41.416847 -118.500641 -116.382668
-41.416847 -118.685654 -116.241318
-41.824970 -118.500641 -116.241318
-42.916847 -118.000641 -116.452591
-42.916847 -118.337746 -116.241318
-43.277351 -118.000641 -116.241318
-41.916847 -118.464462 -116.241318
-41.916847 -118.000641 -116.479774
-4.416847 -151.500641 -116.054672
-5.416847 -151.000641 -115.939919
-5.002907 -151.020996 -115.712936
-4.416847 -151.244629 -115.741318
-3.916847 -151.406036 -115.741318
-3.916847 -151.500641 -115.916122
-5.872025 -150.367203 -115.778839
-5.416847 -150.819244 -115.741318
-5.985897 -150.000641 -115.678467
-1.416847 -150.018921 -115.741318
-1.416847 -150.000641 -115.745285
-1.497589 -150.500641 -115.741318
-6.396956 -149.418701 -115.759804
-1.416847 -149.966248 -115.741318
-1.441912 -149.500641 -115.707230
-6.484196 -149.000641 -115.684814
-1.507757 -149.000641 -115.654716
-6.916847 -148.500641 -116.034492
-6.499649 -148.500641 -115.679405
-1.895417 -148.445068 -115.761963
-6.916847 -148.000641 -116.149666
-6.418960 -147.997238 -115.738174
-2.383023 -147.939301 -115.771446
-6.416847 -147.500641 -115.957291
-6.168102 -147.500641 -115.741318
-2.912259 -147.494888 -115.745087
-5.916847 -147.207275 -115.741318
-5.916847 -147.000641 -115.865166
-5.754635 -147.000641 -115.741318
-3.916847 -147.090439 -115.741318
-3.950600 -147.000641 -115.741318
-3.416847 -147.281937 -115.741318
-19.416847 -134.473694 -115.807175
-19.916847 -134.607651 -116.241318
-19.916847 -134.500641 -116.145546
-19.416847 -134.692780 -116.241318
-19.001772 -134.506683 -115.722969
-18.916847 -134.722168 -116.241318
-18.416847 -134.915451 -116.241318
-18.416847 -134.546356 -115.653091
-17.916847 -135.000641 -116.200592
-18.018059 -135.000641 -116.241318
-17.916847 -134.679764 -115.741318
-21.416847 -134.095490 -116.241318
-21.416847 -134.000641 -116.145462
-20.916847 -133.933044 -115.822617
-20.916847 -134.313400 -116.241318
-20.440628 -134.009323 -115.714653
-20.453064 -134.500641 -116.241318
-20.416847 -134.500641 -116.226372
-19.916847 -134.236603 -115.741318
-21.816107 -133.480469 -115.772079
-21.416847 -133.567047 -115.634216
-22.891376 -132.994873 -115.750427
-22.416847 -133.198486 -115.741318
-23.838432 -132.476410 -115.790009
-23.416847 -132.725067 -115.741318
-24.916847 -131.948578 -115.817993
-24.538113 -132.024338 -115.696915
-25.892426 -131.475708 -115.763908
-25.416847 -131.703201 -115.741318
-12.916847 -132.000641 -116.127823
-12.461159 -131.500641 -115.701996
-12.552780 -132.000641 -115.741318
-26.997553 -131.022675 -115.712364
-26.416847 -131.249664 -115.741318
-12.446249 -131.000641 -115.718719
-27.857450 -130.477707 -115.773132
-27.416847 -130.793365 -115.741318
-12.916847 -130.500641 -115.997620
-12.503050 -130.500641 -115.676132
-28.916847 -129.925232 -115.824471
-28.525089 -130.025589 -115.711517
-12.821323 -130.000641 -115.811363
-29.916847 -129.386841 -115.833076
-29.440285 -129.513245 -115.718880
-13.416847 -129.500641 -116.030289
-12.905547 -129.445007 -115.749176
-30.916847 -129.000641 -115.947868
-30.441856 -129.008606 -115.735588
-13.916847 -129.000641 -116.104050
-13.416847 -129.000641 -115.880157
-13.024662 -129.000641 -115.687576
-31.416847 -128.500641 -115.912239
-30.961653 -128.583725 -115.717667
-13.916847 -128.500641 -115.963531
-13.409957 -128.464142 -115.744698
-32.416847 -128.000641 -116.061630
-31.916847 -128.000641 -115.874039
-31.460112 -128.038727 -115.704666
-13.916847 -128.000641 -115.894142
-13.495956 -128.000641 -115.703247
-32.916847 -127.500641 -116.031731
-32.296906 -127.447655 -115.761177
-31.916847 -127.597900 -115.701302
-14.416847 -127.500641 -116.078575
-13.807940 -127.500641 -115.795258
-42.916847 -127.000641 -116.023315
-42.416847 -127.000641 -115.942184
-41.916847 -126.875099 -115.828064
-41.416847 -127.000641 -115.966835
-40.916847 -127.000641 -116.021576
-33.916847 -127.000641 -116.124924
-33.416847 -127.000641 -115.998833
-32.863506 -126.886894 -115.760712
-14.416847 -127.000641 -116.023499
-13.898796 -126.896591 -115.751053
-44.416847 -126.500641 -115.969452
-43.916847 -126.420761 -115.796875
-43.366936 -126.492561 -115.746452
-42.916847 -126.558228 -115.705009
-42.416847 -126.610245 -115.676224
-41.416847 -126.597816 -115.682816
-40.916847 -126.561203 -115.701111
-40.362045 -126.510773 -115.734390
-39.916847 -126.424515 -115.791061
-39.416847 -126.500641 -115.982857
-34.916847 -126.500641 -116.111450
-34.416847 -126.500641 -116.029045
-33.916847 -126.500641 -115.932343
-33.308674 -126.500641 -115.774635
-14.416847 -126.500641 -115.933037
-13.973063 -126.500641 -115.713928
-45.916847 -126.000641 -116.064972
-45.416847 -126.000641 -115.914719
-44.920578 -126.002426 -115.738495
-44.416847 -126.106476 -115.666672
-39.306732 -126.025032 -115.727379
-38.916847 -125.935715 -115.777313
-38.416847 -126.000641 -115.937454
-37.916847 -126.000641 -116.050156
-35.916847 -126.000641 -116.052696
-35.416847 -126.000641 -115.996040
-34.916847 -126.000641 -115.952728
-34.416847 -126.000641 -115.890266
-33.916847 -126.000641 -115.804237
-33.465645 -126.100204 -115.732109
-14.916847 -126.000641 -116.099121
-14.334555 -125.933365 -115.761658
-47.916847 -125.500641 -116.025818
-47.416847 -125.500641 -115.887512
-46.916847 -125.500641 -115.892838
-46.416847 -125.500641 -115.899742
-45.911377 -125.494690 -115.743118
-45.416847 -125.622314 -115.660919
-38.344276 -125.522217 -115.731697
-37.916847 -125.500641 -115.834885
-37.416847 -125.500641 -115.943863
-36.916847 -125.500641 -115.998680
-36.416847 -125.500641 -115.980774
-35.916847 -125.500641 -115.926086
-35.416847 -125.500641 -115.888588
-34.916847 -125.500641 -115.861328
-34.416847 -125.500641 -115.824097
-33.865189 -125.500641 -115.751213
-14.916847 -125.500641 -115.935364
-14.488632 -125.500641 -115.703735
-48.916847 -125.000641 -116.184311
-48.416847 -125.000641 -116.042381
-47.916847 -125.000641 -115.862312
-47.416847 -125.000641 -115.801102
-47.180969 -125.000641 -115.741318
-46.916847 -125.160583 -115.741318
-46.416847 -125.104233 -115.686447
-37.809059 -125.046165 -115.729782
-37.416847 -125.000641 -115.805450
-36.916847 -125.000641 -115.897110
-36.416847 -125.000641 -115.923920
-35.916847 -125.000641 -115.896484
-35.416847 -125.000641 -115.888611
-34.916847 -125.000641 -115.865829
-34.416847 -125.000641 -115.827415
-33.822140 -125.000641 -115.757294
-15.416847 -125.000641 -115.939270
-14.939091 -125.020683 -115.721939
-48.416847 -124.500641 -115.828011
-48.916847 -124.500641 -115.869522
-47.916847 -124.500641 -115.868973
-47.416847 -124.500641 -115.856094
-47.221260 -124.500641 -115.741318
-37.446060 -124.500641 -115.749222
-36.916847 -124.500641 -115.862442
-36.416847 -124.500641 -115.919479
-35.916847 -124.500641 -115.950874
-35.416847 -124.500641 -115.990570
-34.916847 -124.500641 -115.969620
-34.416847 -124.500641 -115.934456
-33.916847 -124.500641 -115.880226
-33.416847 -124.909111 -115.718796
-33.416847 -124.500641 -115.815285
-32.927807 -124.498039 -115.738495
-24.898294 -124.500641 -115.750916
-24.416847 -124.579887 -115.741318
-23.916847 -124.581429 -115.741318
-23.416847 -124.590454 -115.741318
-22.916847 -124.585793 -115.741318
-22.416847 -124.540375 -115.636314
-21.916847 -124.514381 -115.710022
-21.521330 -124.495583 -115.750809
-20.916847 -124.452042 -115.840958
-16.416847 -124.389969 -115.843872
-15.893701 -124.477463 -115.751648
-15.416847 -124.620026 -115.653580
-48.416847 -124.000641 -116.027367
-48.916847 -124.000641 -115.982742
-47.916847 -124.000641 -115.847412
-47.416847 -124.000641 -115.765694
-47.384342 -124.000641 -115.741318
-37.491600 -124.000641 -115.769318
-36.916847 -124.000641 -115.927780
-36.416847 -124.000641 -116.019730
-35.916847 -124.000641 -116.109184
-33.916847 -124.000641 -116.091805
-33.416847 -124.000641 -116.045723
-32.916847 -124.000641 -115.980240
-32.416847 -124.000641 -115.894424
-32.416847 -124.417343 -115.702286
-31.916847 -124.000641 -115.800468
-31.916847 -124.132233 -115.741318
-31.676456 -124.000641 -115.741318
-27.916847 -124.000641 -116.225067
-25.416847 -124.315964 -115.741318
-24.916847 -124.491142 -115.741318
-20.416847 -124.313568 -115.741318
-19.916847 -124.212616 -115.741318
-19.416847 -124.073166 -115.629906
-18.916847 -124.056343 -115.662125
-18.416847 -124.021309 -115.711685
-17.916847 -124.020821 -115.715073
-17.416847 -124.047997 -115.688065
-16.916847 -124.089157 -115.649467
-47.416847 -123.964279 -115.741318
-37.416847 -123.500641 -115.914169
-37.894405 -123.426331 -115.732147
-36.916847 -123.500641 -116.069595
-37.991440 -123.000641 -115.784492
-37.416847 -123.000641 -116.068535
-37.916847 -122.500641 -115.990433
-38.395020 -122.408295 -115.727516
-44.916847 -122.000641 -115.771591
-44.916847 -122.500641 -115.911514
-38.416847 -122.000641 -115.835869
-38.566650 -122.000641 -115.741318
-37.916847 -122.000641 -116.090561
-44.916847 -121.500641 -115.991318
-38.416847 -121.500641 -115.879585
-38.750534 -121.500641 -115.741318
-38.916847 -121.000641 -115.922745
-38.916847 -121.445396 -115.712875
-39.374714 -120.905052 -115.717163
-38.416847 -121.000641 -116.170128
-39.416847 -120.500641 -115.890831
-39.667568 -120.500641 -115.741318
-40.416847 -120.000641 -115.782906
-40.527817 -120.033310 -115.741318
-39.916847 -120.000641 -115.936241
-39.916847 -120.265808 -115.741318
-43.916847 -119.500641 -115.757820
-43.857483 -119.500641 -115.741318
-43.916847 -119.538727 -115.741318
-42.029743 -119.539032 -115.755226
-41.416847 -119.500641 -115.873077
-41.416847 -119.904892 -115.697380
-40.916847 -119.500641 -115.952240
-40.916847 -119.958748 -115.718262
-43.416847 -119.396584 -115.686020
-43.416847 -119.000641 -115.891411
-43.916847 -119.000641 -116.003609
-42.916847 -119.130180 -115.801636
-42.416847 -119.000641 -115.906448
-42.416847 -119.434425 -115.711014
-41.916847 -119.000641 -115.981339
-41.416847 -119.000641 -116.082565
-43.416847 -118.500641 -116.152290
-42.916847 -118.500641 -116.125366
-41.916847 -118.500641 -116.217484
-4.416847 -150.950653 -115.302818
-4.029896 -151.018890 -115.220444
-3.416847 -151.161987 -115.741318
-3.416847 -151.181580 -115.241318
-5.416847 -150.500641 -115.446533
-5.126698 -150.500641 -115.241318
-4.916847 -150.666183 -115.241318
-5.421668 -150.010300 -115.233734
-1.416847 -150.500641 -115.641876
-5.825125 -149.500641 -115.313354
-1.060963 -149.500641 -115.241318
-5.907652 -149.000641 -115.248177
-1.004017 -149.000641 -115.162682
-5.888512 -148.500641 -115.264008
-1.380731 -148.396011 -115.275009
-5.843571 -148.000641 -115.305237
-1.857175 -147.890289 -115.290405
-5.916847 -147.500641 -115.551895
-5.557404 -147.500641 -115.241318
-2.373209 -147.444672 -115.276047
-3.916847 -147.000641 -115.707565
-3.416847 -147.000641 -115.394051
-3.095669 -147.000641 -115.241318
-2.916847 -147.076218 -115.241318
-3.916847 -146.966888 -115.741318
-17.916847 -134.469635 -115.331749
-17.416847 -134.789917 -115.741318
-17.312769 -134.496750 -115.250641
-16.916847 -134.513916 -115.208191
-16.916847 -134.881729 -115.741318
-16.416847 -134.568314 -115.241318
-19.944157 -134.007324 -115.226639
-19.416847 -134.258347 -115.241318
-18.916847 -134.356216 -115.241318
-18.416847 -134.385071 -115.241318
-20.942268 -133.511002 -115.203003
-20.416847 -133.751266 -115.241318
-22.342451 -132.985458 -115.274712
-21.916847 -133.153000 -115.241318
-21.416847 -133.356110 -115.241318
-23.397320 -132.483856 -115.259705
-22.916847 -132.693741 -115.241318
-24.211117 -132.000641 -115.241318
-23.916847 -132.208435 -115.241318
-12.738018 -132.500641 -115.741318
-12.416847 -132.500641 -115.328453
-12.416847 -132.000641 -115.588631
-25.416847 -131.436768 -115.331367
-24.950794 -131.523178 -115.224625
-24.416847 -131.842255 -115.241318
-12.056454 -131.500641 -115.241318
-26.297430 -130.964355 -115.284599
-25.916847 -131.071045 -115.145004
-11.941860 -131.000641 -115.218460
-27.295109 -130.472153 -115.273155
-26.916847 -130.561462 -115.183968
-11.949553 -130.500641 -115.215454
-27.924456 -130.006119 -115.228653
-12.416847 -130.000641 -115.521439
-11.978395 -130.000641 -115.196625
-28.916847 -129.387207 -115.324661
-28.508533 -129.527603 -115.219467
-12.416847 -129.500641 -115.447792
-12.025356 -129.500641 -115.168190
-29.916847 -129.000641 -115.520531
-29.384924 -128.950150 -115.257019
-12.343044 -129.000641 -115.286530
-30.416847 -128.500641 -115.416206
-29.932695 -128.512375 -115.229202
-12.916847 -128.500641 -115.500153
-12.422049 -128.528900 -115.238670
-30.916847 -128.000641 -115.391960
-30.497395 -128.036285 -115.225494
-12.781677 -128.000641 -115.310837
-31.416847 -127.500641 -115.427483
-30.954781 -127.545166 -115.206200
-13.416847 -127.500641 -115.588036
-12.869993 -127.500641 -115.265579
-32.416847 -127.000641 -115.649048
-31.916847 -127.000641 -115.492828
-31.412985 -126.980957 -115.242958
-13.416847 -127.000641 -115.500023
-12.926763 -127.078033 -115.236176
-41.916847 -126.500641 -115.596420
-32.916847 -126.500641 -115.662033
-32.416847 -126.500641 -115.535698
-31.916847 -126.500641 -115.359528
-31.511738 -126.500641 -115.211754
-13.416847 -126.500641 -115.446922
-12.976496 -126.500641 -115.210648
-43.916847 -126.000641 -115.534065
-43.416847 -126.000641 -115.491226
-42.916847 -126.000641 -115.454674
-42.416847 -126.000641 -115.426086
-41.916847 -126.000641 -115.406326
-41.416847 -126.000641 -115.408051
-40.916847 -126.000641 -115.415184
-40.416847 -126.000641 -115.428764
-39.916847 -126.000641 -115.535385
-32.916847 -126.000641 -115.589287
-32.416847 -126.000641 -115.457626
-31.916847 -126.000641 -115.315849
-31.520828 -126.000641 -115.216644
-13.916847 -126.000641 -115.574356
-13.298611 -126.000641 -115.294029
-44.916847 -125.500641 -115.375984
-44.416847 -125.428391 -115.275314
-43.916847 -125.454910 -115.261848
-43.416847 -125.446335 -115.262238
-42.916847 -125.422180 -115.263779
-42.416847 -125.428658 -115.257278
-41.916847 -125.448097 -115.253281
-41.307499 -125.491333 -115.243317
-40.916847 -125.515602 -115.236313
-40.336006 -125.516174 -115.234833
-39.916847 -125.442184 -115.268211
-39.416847 -125.500641 -115.433762
-38.916847 -125.500641 -115.550804
-33.416847 -125.500641 -115.670868
-32.916847 -125.500641 -115.584496
-32.416847 -125.500641 -115.453163
-31.916847 -125.500641 -115.329086
-31.447247 -125.419434 -115.234795
-13.916847 -125.500641 -115.426468
-13.441642 -125.574509 -115.230064
-46.916847 -125.000641 -115.672112
-45.916847 -125.000641 -115.468391
-45.362301 -124.922829 -115.257828
-44.916847 -125.106216 -115.197479
-39.388741 -125.009079 -115.238129
-38.916847 -125.000641 -115.346535
-38.416847 -125.000641 -115.516548
-32.916847 -125.000641 -115.633537
-32.416847 -125.000641 -115.517990
-31.916847 -125.000641 -115.399216
-31.416847 -125.000641 -115.293350
-31.028145 -124.976761 -115.232529
-14.416847 -125.000641 -115.486778
-13.901978 -124.967575 -115.248138
-46.916847 -124.500641 -115.556519
-46.416847 -124.500641 -115.394577
-45.916901 -124.500671 -115.241280
-38.907467 -124.533134 -115.238266
-38.416847 -124.500641 -115.403641
-37.916847 -124.500641 -115.624802
-31.916847 -124.500641 -115.553246
-31.416847 -124.500641 -115.460129
-30.916847 -124.500641 -115.382103
-30.416847 -124.500641 -115.324318
-30.416847 -124.869202 -115.191002
-29.916847 -124.500641 -115.261772
-29.916847 -124.561066 -115.241318
-29.770782 -124.500641 -115.241318
-24.416847 -124.500641 -115.505829
-23.916847 -124.500641 -115.436073
-23.416847 -124.500641 -115.432068
-22.916847 -124.472305 -115.353218
-14.916847 -124.500641 -115.426376
-14.409449 -124.490044 -115.244408
-46.916847 -124.000641 -115.393112
-46.465977 -124.093079 -115.216316
-38.416847 -124.000641 -115.399986
-38.868420 -124.000641 -115.220818
-37.916847 -124.000641 -115.621666
-23.416847 -124.452377 -115.241318
-22.416847 -124.400146 -115.241318
-21.916847 -124.330582 -115.241318
-21.416847 -124.240379 -115.241318
-20.916847 -124.148651 -115.241318
-20.416847 -124.034790 -115.182327
-20.013178 -123.989731 -115.262627
-16.416847 -123.915977 -115.346779
-15.846066 -123.993332 -115.249550
-15.416847 -124.044823 -115.205704
-14.916847 -124.115349 -115.154106
-47.416847 -123.500641 -115.454300
-47.021774 -123.500641 -115.241318
-46.916847 -123.643692 -115.241318
-38.416847 -123.500641 -115.453445
-38.868553 -123.500641 -115.213997
-19.416847 -123.840393 -115.241318
-18.916847 -123.767776 -115.241318
-18.416847 -123.706482 -115.241318
-17.916847 -123.683273 -115.241318
-17.416847 -123.688141 -115.241318
-16.916847 -123.737442 -115.241318
-38.416847 -123.000641 -115.548088
-38.911781 -122.990036 -115.235123
-39.032829 -122.500641 -115.307816
-39.419769 -122.002510 -115.241913
-38.916847 -122.000641 -115.528801
-39.416847 -121.500641 -115.441406
-39.900459 -121.484352 -115.225540
-44.916847 -121.000641 -115.296463
-44.526333 -120.979881 -115.230309
-44.916847 -121.110291 -115.241318
-41.916847 -121.130981 -115.274765
-42.376652 -120.948563 -115.233673
-41.416847 -121.000641 -115.343590
-41.416847 -121.459396 -115.230835
-40.916847 -121.103493 -115.272575
-40.416847 -121.066765 -115.266930
-39.916847 -121.000641 -115.435516
-44.416847 -120.500641 -115.458092
-43.916847 -120.605957 -115.287270
-43.416847 -120.514023 -115.246132
-42.916847 -120.555115 -115.259140
-42.416847 -120.500641 -115.358215
-41.916847 -120.500641 -115.455292
-41.416847 -120.500641 -115.491974
-40.916847 -120.500641 -115.502220
-40.416847 -120.500641 -115.519722
-39.916847 -120.500641 -115.602158
-43.916847 -120.000641 -115.533318
-43.416847 -120.000641 -115.419670
-42.916847 -120.000641 -115.433197
-42.416847 -120.000641 -115.505783
-41.916847 -120.000641 -115.607887
-42.916847 -119.500641 -115.626038
-3.416847 -151.000641 -114.967209
-3.024036 -151.000641 -114.741318
-4.916847 -150.500641 -115.108681
-4.416847 -150.423889 -114.794830
-4.029568 -150.522949 -114.720566
-3.416847 -150.809891 -114.741318
-5.416847 -149.500641 -115.004517
-5.002197 -149.500641 -114.669952
-4.878813 -149.905792 -114.764977
-5.416847 -149.000641 -114.900574
-5.239483 -149.000641 -114.741318
-0.916847 -149.500641 -115.100288
-0.492987 -149.000641 -114.670792
-0.607502 -149.500641 -114.741318
-5.359816 -148.500641 -114.787598
-0.916847 -148.500641 -114.932640
-0.673740 -148.500641 -114.741318
-5.416847 -148.000641 -114.875511
-5.251526 -148.000641 -114.741318
-1.416847 -148.000641 -115.024551
-0.960079 -148.097198 -114.706192
-5.416847 -147.649109 -114.741318
-1.879831 -147.447754 -114.781837
-1.416847 -147.751694 -114.741318
-2.916847 -147.000641 -115.030800
-2.706699 -147.000641 -114.741318
-2.416847 -147.105713 -114.741318
-16.416847 -134.500641 -115.084442
-15.916847 -134.500641 -115.030716
-15.916847 -134.580017 -115.241318
-15.548409 -134.500641 -115.241318
-19.437832 -134.011597 -114.710136
-18.916847 -134.156631 -114.741318
-18.416847 -134.226990 -114.741318
-17.916847 -134.303986 -114.741318
-17.416847 -134.333160 -114.741318
-16.916847 -134.356277 -114.741318
-16.416847 -134.373535 -114.741318
-15.916847 -134.379944 -114.741318
-15.416847 -134.474426 -115.241318
-15.416847 -134.328415 -114.741318
-14.916847 -134.323135 -114.741318
-20.387995 -133.470779 -114.767128
-19.916847 -133.743637 -114.741318
-21.869810 -132.992065 -114.767448
-21.416847 -133.159027 -114.741318
-20.916847 -133.305176 -114.741318
-22.935810 -132.509399 -114.674644
-22.416847 -132.774323 -114.741318
-23.926083 -132.007858 -114.709976
-23.416847 -132.287079 -114.741318
-24.506790 -131.570038 -114.741318
-25.394577 -130.973434 -114.757126
-24.916847 -131.223618 -114.741318
-11.916847 -131.500641 -115.092300
-11.435099 -130.940094 -114.733101
-11.616997 -131.500641 -114.741318
-26.343822 -130.476822 -114.764206
-25.916847 -130.608704 -114.639542
-11.394472 -130.500641 -114.759537
-27.416847 -129.927338 -114.797920
-27.041218 -130.027786 -114.717468
-11.408803 -129.881470 -114.747269
-27.888773 -129.444626 -114.758026
-11.433605 -129.500641 -114.729088
-28.916847 -129.000641 -115.070908
-28.377819 -128.908600 -114.766106
-11.916847 -129.000641 -115.061234
-11.425991 -129.000641 -114.734787
-29.416847 -128.500641 -115.023407
-28.870270 -128.384399 -114.764145
-11.916847 -128.500641 -114.999344
-11.461370 -128.500641 -114.712799
-29.916847 -128.000641 -115.021454
-29.362114 -127.887825 -114.761551
-12.416847 -128.000641 -115.129944
-11.797373 -128.000641 -114.812698
-30.416847 -127.500641 -115.009712
-29.792217 -127.500641 -114.790421
-12.416847 -127.500641 -115.043282
-11.841856 -127.500641 -114.779251
-30.916847 -127.000641 -115.066833
-30.416847 -127.000641 -114.904121
-29.919975 -127.006546 -114.739418
-12.416847 -127.000641 -114.983566
-11.881271 -127.000641 -114.758972
-30.916847 -126.500641 -115.039848
-30.416847 -126.500641 -114.885620
-29.926767 -126.473961 -114.738708
-12.416847 -126.500641 -114.926567
-11.926143 -126.570892 -114.737595
-30.916847 -126.000641 -115.063393
-30.416847 -126.000641 -114.934853
-29.916847 -126.000641 -114.829132
-29.428223 -125.983078 -114.739182
-12.916847 -126.000641 -115.120628
-12.286032 -126.000641 -114.798431
-30.916847 -125.500641 -115.114914
-30.416847 -125.500641 -115.019852
-29.916847 -125.500641 -114.945374
-29.416847 -125.500641 -114.851074
-28.963139 -125.416611 -114.726395
-12.916847 -125.500641 -114.946815
-12.428235 -125.517273 -114.731987
-44.416847 -125.000641 -115.087700
-43.916847 -125.000641 -115.062965
-43.416847 -125.000641 -115.094353
-42.916847 -125.000641 -115.146240
-42.416847 -125.000641 -115.167900
