# .PCD v.7 - Point Cloud Data file format
VERSION .7
FIELDS x y z
SIZE 4 4 4
TYPE F F F
COUNT 1 1 1
WIDTH 1478
HEIGHT 1
VIEWPOINT -11.15217 -11.65757 -461.52031 0.74303 0.02219 0.01822 -0.66863
POINTS 1478
DATA ascii
-155.040000 6.900000 -565.230000
-155.040000 6.920000 -567.120000
-155.640000 6.970000 -571.150000
-155.120000 6.970000 -571.160000
-154.610000 6.970000 -571.210000
-154.090000 6.970000 -571.210000
-153.560000 6.970000 -571.200000
-153.100000 6.970000 -571.440000
-152.630000 6.980000 -571.620000
-152.170000 6.980000 -571.870000
-151.740000 6.980000 -572.210000
-151.370000 6.990000 -572.780000
-152.140000 7.050000 -577.610000
-151.810000 7.060000 -578.360000
-151.330000 7.060000 -578.550000
-150.890000 7.070000 -578.910000
-150.480000 7.070000 -579.350000
-150.210000 7.080000 -580.330000
-150.700000 7.130000 -584.230000
-150.400000 7.140000 -585.170000
-150.370000 7.170000 -587.080000
-150.200000 7.190000 -588.500000
-149.780000 7.190000 -589.000000
-149.460000 7.200000 -589.850000
-149.110000 7.210000 -590.600000
-148.680000 7.220000 -591.010000
-148.190000 7.220000 -591.210000
-147.680000 7.220000 -591.360000
-147.940000 7.260000 -594.510000
-148.470000 7.310000 -598.780000
-148.610000 7.350000 -601.530000
-148.240000 7.360000 -602.250000
-149.240000 7.430000 -608.490000
-149.490000 7.470000 -611.780000
-148.540000 7.460000 -610.200000
-147.660000 7.440000 -608.880000
-140.820000 7.150000 -585.460000
-140.100000 7.140000 -584.700000
-139.630000 7.140000 -584.980000
-139.170000 7.150000 -585.300000
-138.670000 7.150000 -585.430000
-138.090000 7.150000 -585.260000
-137.170000 7.130000 -583.680000
-136.400000 7.110000 -582.660000
-135.880000 7.110000 -582.740000
-135.380000 7.120000 -582.880000
-134.860000 7.120000 -582.950000
-134.280000 7.110000 -582.730000
-133.650000 7.110000 -582.340000
-133.110000 7.110000 -582.310000
-132.600000 7.110000 -582.420000
-132.110000 7.110000 -582.630000
-131.630000 7.120000 -582.850000
-131.130000 7.120000 -583.000000
-130.660000 7.120000 -583.270000
-130.160000 7.120000 -583.450000
-129.670000 7.130000 -583.650000
-129.080000 7.120000 -583.400000
-128.380000 7.110000 -582.680000
-127.850000 7.110000 -582.650000
-127.350000 7.120000 -582.810000
-126.860000 7.120000 -583.030000
-126.390000 7.120000 -583.310000
-125.920000 7.130000 -583.640000
-125.440000 7.130000 -583.890000
-124.910000 7.130000 -583.920000
-124.230000 7.120000 -583.230000
-123.550000 7.110000 -582.560000
-122.760000 7.100000 -581.380000
-121.670000 7.070000 -578.760000
-120.490000 7.030000 -575.700000
-119.740000 7.010000 -574.640000
-119.030000 7.000000 -573.790000
-118.360000 6.990000 -573.090000
-117.700000 6.990000 -572.480000
-117.040000 6.980000 -571.820000
-116.400000 6.970000 -571.270000
-115.780000 6.970000 -570.790000
-115.180000 6.960000 -570.420000
-114.580000 6.960000 -570.020000
-113.980000 6.950000 -569.670000
-113.390000 6.950000 -569.310000
-112.800000 6.940000 -569.000000
-112.230000 6.940000 -568.740000
-111.660000 6.940000 -568.510000
-111.090000 6.930000 -568.280000
-110.530000 6.930000 -568.060000
-109.980000 6.930000 -567.900000
-109.410000 6.930000 -567.680000
-108.860000 6.930000 -567.500000
-108.290000 6.920000 -567.250000
-107.730000 6.920000 -567.050000
-107.150000 6.920000 -566.730000
-106.610000 6.910000 -566.610000
-106.050000 6.910000 -566.400000
-105.480000 6.910000 -566.130000
-104.930000 6.910000 -565.980000
-104.370000 6.900000 -565.770000
-103.820000 6.900000 -565.570000
-103.270000 6.900000 -565.440000
-102.740000 6.900000 -565.340000
-102.210000 6.900000 -565.280000
-101.650000 6.890000 -565.070000
-101.110000 6.890000 -564.960000
-100.570000 6.890000 -564.800000
-100.020000 6.890000 -564.670000
-99.490000 6.890000 -564.590000
-98.950000 6.890000 -564.440000
-98.400000 6.880000 -564.260000
-97.890000 6.880000 -564.290000
-97.350000 6.880000 -564.180000
-96.820000 6.880000 -564.110000
-96.290000 6.880000 -564.040000
-95.780000 6.880000 -564.080000
-95.260000 6.880000 -564.040000
-94.740000 6.880000 -564.070000
-94.220000 6.880000 -564.010000
-93.710000 6.880000 -564.090000
-93.190000 6.880000 -564.070000
-92.680000 6.880000 -564.090000
-92.170000 6.880000 -564.110000
-91.650000 6.880000 -564.140000
-91.150000 6.880000 -564.200000
-90.640000 6.880000 -564.290000
-90.130000 6.880000 -564.290000
-89.620000 6.890000 -564.380000
-89.110000 6.890000 -564.420000
-88.600000 6.890000 -564.480000
-88.100000 6.890000 -564.550000
-87.590000 6.890000 -564.610000
-87.090000 6.890000 -564.730000
-86.570000 6.890000 -564.710000
-86.060000 6.890000 -564.750000
-85.560000 6.890000 -564.870000
-85.060000 6.890000 -564.990000
-84.560000 6.890000 -565.090000
-84.050000 6.890000 -565.150000
-83.550000 6.900000 -565.260000
-83.050000 6.900000 -565.380000
-82.540000 6.900000 -565.480000
-82.040000 6.900000 -565.590000
-81.530000 6.900000 -565.640000
-81.040000 6.900000 -565.830000
-80.530000 6.900000 -565.890000
-80.030000 6.910000 -566.030000
-79.530000 6.910000 -566.170000
-79.030000 6.910000 -566.320000
-78.540000 6.910000 -566.460000
-78.040000 6.910000 -566.610000
-77.530000 6.910000 -566.730000
-77.030000 6.910000 -566.820000
-76.530000 6.920000 -566.960000
-76.030000 6.920000 -567.170000
-75.540000 6.920000 -567.340000
-75.050000 6.920000 -567.560000
-74.550000 6.930000 -567.730000
-74.040000 6.930000 -567.820000
-73.540000 6.930000 -567.960000
-73.030000 6.930000 -568.010000
-72.510000 6.930000 -568.050000
-71.980000 6.930000 -567.970000
-71.460000 6.930000 -567.980000
-70.950000 6.930000 -568.030000
-70.420000 6.930000 -568.020000
-69.920000 6.930000 -568.110000
-69.400000 6.930000 -568.190000
-68.890000 6.930000 -568.240000
-68.390000 6.930000 -568.380000
-67.890000 6.940000 -568.580000
-67.390000 6.940000 -568.730000
-66.880000 6.940000 -568.880000
-66.390000 6.940000 -569.100000
-65.890000 6.940000 -569.280000
-65.390000 6.950000 -569.470000
-64.890000 6.950000 -569.670000
-64.390000 6.950000 -569.890000
-63.890000 6.950000 -570.100000
-63.390000 6.960000 -570.250000
-62.900000 6.960000 -570.520000
-62.390000 6.960000 -570.690000
-61.890000 6.960000 -570.870000
-61.390000 6.970000 -571.090000
-60.890000 6.970000 -571.290000
-60.380000 6.970000 -571.480000
-59.880000 6.970000 -571.650000
-59.370000 6.980000 -571.790000
-58.860000 6.980000 -571.970000
-58.360000 6.980000 -572.160000
-57.850000 6.980000 -572.340000
-57.340000 6.980000 -572.460000
-56.840000 6.990000 -572.660000
-56.330000 6.990000 -572.810000
-55.820000 6.990000 -572.960000
-55.300000 6.990000 -573.080000
-54.800000 6.990000 -573.250000
-54.290000 7.000000 -573.500000
-53.780000 7.000000 -573.570000
-53.260000 7.000000 -573.730000
-52.750000 7.000000 -573.860000
-52.240000 7.000000 -574.030000
-51.730000 7.000000 -574.160000
-51.210000 7.010000 -574.240000
-50.700000 7.010000 -574.410000
-50.180000 7.010000 -574.530000
-49.660000 7.010000 -574.610000
-49.140000 7.010000 -574.700000
-48.630000 7.010000 -574.840000
-48.110000 7.010000 -574.950000
-47.590000 7.020000 -575.070000
-47.070000 7.020000 -575.140000
-46.560000 7.020000 -575.280000
-46.040000 7.020000 -575.430000
-45.520000 7.020000 -575.470000
-45.000000 7.020000 -575.560000
-44.480000 7.020000 -575.660000
-43.960000 7.020000 -575.710000
-43.440000 7.020000 -575.800000
-42.910000 7.020000 -575.830000
-42.390000 7.030000 -575.900000
-41.870000 7.030000 -575.990000
-41.340000 7.030000 -576.000000
-40.820000 7.030000 -576.070000
-40.290000 7.030000 -576.100000
-39.770000 7.030000 -576.150000
-39.250000 7.030000 -576.250000
-38.720000 7.030000 -576.310000
-38.200000 7.030000 -576.370000
-37.680000 7.030000 -576.470000
-37.150000 7.030000 -576.500000
-36.620000 7.030000 -576.510000
-36.100000 7.030000 -576.560000
-35.570000 7.030000 -576.550000
-35.040000 7.030000 -576.530000
-34.510000 7.030000 -576.500000
-33.980000 7.030000 -576.440000
-33.450000 7.030000 -576.440000
-32.920000 7.030000 -576.330000
-32.380000 7.030000 -576.240000
-31.850000 7.030000 -576.230000
-31.320000 7.030000 -576.190000
-30.780000 7.020000 -575.890000
-30.250000 7.020000 -575.790000
-29.710000 7.020000 -575.640000
-29.170000 7.020000 -575.410000
-28.630000 7.020000 -575.170000
-28.100000 7.010000 -574.950000
-27.550000 7.010000 -574.630000
-27.020000 7.010000 -574.470000
-26.480000 7.000000 -574.220000
-25.950000 7.000000 -574.020000
-25.410000 7.000000 -573.860000
-24.880000 7.000000 -573.780000
-24.360000 7.000000 -573.690000
-23.830000 7.000000 -573.620000
-23.300000 7.000000 -573.610000
-22.780000 7.000000 -573.650000
-22.250000 7.000000 -573.690000
-21.730000 7.000000 -573.760000
-21.210000 7.000000 -573.890000
-20.690000 7.000000 -574.090000
-20.180000 7.010000 -574.430000
-19.660000 7.010000 -574.750000
-19.140000 7.010000 -574.940000
-18.620000 7.010000 -575.020000
-18.100000 7.020000 -575.130000
-17.570000 7.010000 -575.010000
-17.040000 7.010000 -574.950000
-16.510000 7.010000 -575.020000
-15.990000 7.020000 -575.180000
-15.470000 7.020000 -575.390000
-14.950000 7.020000 -575.610000
-14.420000 7.020000 -575.700000
-13.900000 7.020000 -575.730000
-13.370000 7.020000 -575.670000
-12.840000 7.020000 -575.710000
-12.320000 7.020000 -575.800000
-11.790000 7.030000 -575.940000
-11.270000 7.030000 -576.140000
-10.750000 7.030000 -576.440000
-10.220000 7.030000 -576.720000
-9.700000 7.040000 -577.180000
-9.180000 7.050000 -577.740000
-8.660000 7.060000 -578.460000
-8.150000 7.070000 -579.220000
-7.620000 7.070000 -579.650000
-7.090000 7.070000 -579.650000
-6.560000 7.070000 -579.420000
-6.020000 7.070000 -579.270000
-5.490000 7.060000 -579.120000
-4.960000 7.060000 -579.000000
-4.430000 7.060000 -579.000000
-3.900000 7.060000 -578.990000
-3.370000 7.060000 -579.080000
-2.840000 7.060000 -579.100000
-2.310000 7.070000 -579.190000
-1.780000 7.070000 -579.240000
-1.250000 7.070000 -579.250000
-0.720000 7.070000 -579.250000
-0.190000 7.070000 -579.340000
0.340000 7.070000 -579.470000
0.870000 7.070000 -579.640000
1.410000 7.070000 -579.920000
1.940000 7.080000 -580.360000
-164.170000 6.330000 -561.170000
-163.890000 6.340000 -561.930000
-163.500000 6.350000 -562.350000
-163.020000 6.350000 -562.470000
-162.490000 6.350000 -562.430000
-161.950000 6.350000 -562.330000
-161.360000 6.340000 -562.070000
-160.810000 6.340000 -561.940000
-160.310000 6.340000 -562.000000
-159.860000 6.340000 -562.230000
-159.420000 6.350000 -562.500000
-159.050000 6.350000 -563.010000
-158.670000 6.360000 -563.450000
-158.260000 6.360000 -563.840000
-157.780000 6.360000 -563.960000
-157.280000 6.370000 -564.020000
-156.790000 6.370000 -564.120000
-156.340000 6.370000 -564.340000
-155.890000 6.370000 -564.590000
-155.460000 6.380000 -564.900000
-155.280000 6.390000 -566.110000
-156.060000 6.440000 -570.790000
-155.630000 6.450000 -571.110000
-155.110000 6.450000 -571.140000
-154.630000 6.450000 -571.290000
-154.110000 6.450000 -571.300000
-153.610000 6.450000 -571.380000
-153.100000 6.450000 -571.420000
-152.620000 6.450000 -571.570000
-152.210000 6.460000 -572.000000
-151.770000 6.460000 -572.310000
-151.430000 6.470000 -572.990000
-152.110000 6.520000 -577.510000
-151.870000 6.530000 -578.580000
-151.400000 6.540000 -578.820000
-150.950000 6.540000 -579.130000
-150.520000 6.540000 -579.520000
-150.280000 6.560000 -580.620000
-150.970000 6.610000 -585.280000
-150.840000 6.630000 -586.840000
-150.560000 6.640000 -587.840000
-150.260000 6.650000 -588.740000
-149.910000 6.660000 -589.490000
-149.620000 6.670000 -590.450000
-149.250000 6.680000 -591.130000
-148.930000 6.690000 -592.010000
-148.900000 6.710000 -594.010000
-149.780000 6.770000 -599.630000
-150.520000 6.830000 -604.720000
-150.100000 6.840000 -605.290000
-149.700000 6.850000 -605.890000
-149.710000 6.870000 -608.150000
-150.330000 6.930000 -612.870000
-149.790000 6.930000 -612.970000
-149.310000 6.930000 -613.330000
-148.930000 6.940000 -614.040000
-148.470000 6.940000 -614.460000
-139.650000 6.610000 -585.050000
-139.160000 6.610000 -585.270000
-138.710000 6.610000 -585.610000
-138.210000 6.620000 -585.760000
-137.670000 6.620000 -585.760000
-136.870000 6.600000 -584.660000
-135.980000 6.590000 -583.150000
-135.400000 6.580000 -582.970000
-134.890000 6.580000 -583.080000
-134.400000 6.590000 -583.260000
-133.820000 6.580000 -583.090000
-133.200000 6.580000 -582.720000
-132.640000 6.580000 -582.570000
-132.130000 6.580000 -582.710000
-131.640000 6.580000 -582.900000
-131.150000 6.580000 -583.080000
-130.670000 6.590000 -583.310000
-130.180000 6.590000 -583.510000
-129.700000 6.590000 -583.760000
-129.180000 6.590000 -583.850000
-128.570000 6.590000 -583.500000
-127.900000 6.580000 -582.900000
-127.380000 6.580000 -582.960000
-126.890000 6.590000 -583.190000
-126.410000 6.590000 -583.410000
-125.950000 6.590000 -583.760000
-125.480000 6.600000 -584.050000
-124.990000 6.600000 -584.280000
-124.470000 6.600000 -584.360000
-123.830000 6.590000 -583.840000
-123.060000 6.580000 -582.770000
-122.250000 6.570000 -581.480000
-121.200000 6.540000 -579.030000
-120.010000 6.500000 -575.920000
-119.260000 6.490000 -574.870000
-118.570000 6.480000 -574.090000
-117.890000 6.470000 -573.360000
-117.230000 6.470000 -572.720000
-116.620000 6.460000 -572.310000
-115.970000 6.450000 -571.720000
-115.340000 6.450000 -571.170000
-114.730000 6.440000 -570.790000
-114.120000 6.440000 -570.340000
-113.530000 6.430000 -570.000000
-112.930000 6.430000 -569.620000
-112.350000 6.430000 -569.320000
-111.780000 6.420000 -569.100000
-111.210000 6.420000 -568.860000
-110.620000 6.420000 -568.530000
-110.060000 6.410000 -568.330000
-109.490000 6.410000 -568.050000
-108.940000 6.410000 -567.910000
-108.380000 6.410000 -567.700000
-107.810000 6.400000 -567.460000
-107.230000 6.400000 -567.170000
-106.680000 6.400000 -566.970000
-106.110000 6.400000 -566.720000
-105.550000 6.390000 -566.510000
-104.980000 6.390000 -566.220000
-104.430000 6.390000 -566.060000
-103.870000 6.390000 -565.850000
-103.330000 6.380000 -565.760000
-102.780000 6.380000 -565.560000
-102.220000 6.380000 -565.380000
-101.690000 6.380000 -565.290000
-101.160000 6.380000 -565.220000
-100.610000 6.380000 -565.050000
-100.060000 6.370000 -564.870000
-99.520000 6.370000 -564.740000
-98.990000 6.370000 -564.670000
-98.440000 6.370000 -564.510000
-97.910000 6.370000 -564.450000
-97.380000 6.370000 -564.360000
-96.850000 6.370000 -564.270000
-96.320000 6.370000 -564.200000
-95.800000 6.370000 -564.180000
-95.280000 6.370000 -564.180000
-94.760000 6.370000 -564.160000
-94.250000 6.370000 -564.200000
-93.720000 6.370000 -564.160000
-93.200000 6.370000 -564.140000
-92.700000 6.370000 -564.190000
-92.190000 6.370000 -564.260000
-91.670000 6.370000 -564.270000
-91.160000 6.370000 -564.300000
-90.650000 6.370000 -564.320000
-90.130000 6.370000 -564.340000
-89.620000 6.370000 -564.380000
-89.120000 6.370000 -564.490000
-88.620000 6.370000 -564.590000
-88.110000 6.370000 -564.630000
-87.600000 6.370000 -564.690000
-87.080000 6.370000 -564.680000
-86.590000 6.370000 -564.830000
-86.080000 6.370000 -564.860000
-85.570000 6.370000 -564.970000
-85.070000 6.380000 -565.030000
-84.570000 6.380000 -565.160000
-84.060000 6.380000 -565.260000
-83.560000 6.380000 -565.350000
-83.040000 6.380000 -565.350000
-82.550000 6.380000 -565.530000
-82.040000 6.380000 -565.580000
-81.540000 6.380000 -565.700000
-81.050000 6.380000 -565.870000
-80.540000 6.390000 -565.940000
-80.040000 6.390000 -566.100000
-79.540000 6.390000 -566.230000
-79.040000 6.390000 -566.350000
-78.530000 6.390000 -566.410000
-78.040000 6.390000 -566.630000
-77.530000 6.390000 -566.670000
-77.020000 6.390000 -566.760000
-76.520000 6.400000 -566.940000
-76.020000 6.400000 -567.080000
-75.530000 6.400000 -567.250000
-75.030000 6.400000 -567.410000
-74.530000 6.400000 -567.610000
-74.030000 6.410000 -567.740000
-73.520000 6.410000 -567.850000
-73.010000 6.410000 -567.880000
-72.490000 6.410000 -567.870000
-71.970000 6.410000 -567.860000
-71.440000 6.410000 -567.850000
-70.920000 6.410000 -567.860000
-70.410000 6.410000 -567.940000
-69.910000 6.410000 -568.060000
-69.400000 6.410000 -568.130000
-68.880000 6.410000 -568.190000
-68.370000 6.410000 -568.280000
-67.880000 6.410000 -568.500000
-67.380000 6.420000 -568.680000
-66.880000 6.420000 -568.850000
-66.380000 6.420000 -569.010000
-65.880000 6.420000 -569.220000
-65.380000 6.420000 -569.400000
-64.890000 6.430000 -569.640000
-64.380000 6.430000 -569.780000
-63.880000 6.430000 -570.020000
-63.380000 6.430000 -570.200000
-62.880000 6.440000 -570.420000
-62.380000 6.440000 -570.620000
-61.880000 6.440000 -570.820000
-61.380000 6.440000 -571.020000
-60.880000 6.450000 -571.210000
-60.370000 6.450000 -571.340000
-59.870000 6.450000 -571.590000
-59.360000 6.450000 -571.720000
-58.850000 6.450000 -571.870000
-58.350000 6.450000 -572.040000
-57.840000 6.460000 -572.210000
-57.330000 6.460000 -572.360000
-56.830000 6.460000 -572.550000
-56.310000 6.460000 -572.680000
-55.810000 6.460000 -572.890000
-55.300000 6.470000 -573.030000
-54.790000 6.470000 -573.160000
-54.280000 6.470000 -573.340000
-53.770000 6.470000 -573.490000
-53.250000 6.470000 -573.610000
-52.740000 6.470000 -573.760000
-52.230000 6.480000 -573.880000
-51.720000 6.480000 -574.040000
-51.200000 6.480000 -574.150000
-50.680000 6.480000 -574.250000
-50.160000 6.480000 -574.330000
-49.650000 6.480000 -574.530000
-49.140000 6.480000 -574.640000
-48.620000 6.480000 -574.740000
-48.110000 6.490000 -574.910000
-47.590000 6.490000 -574.970000
-47.070000 6.490000 -575.100000
-46.550000 6.490000 -575.220000
-46.030000 6.490000 -575.300000
-45.510000 6.490000 -575.390000
-45.000000 6.490000 -575.510000
-44.470000 6.490000 -575.520000
-43.950000 6.500000 -575.660000
-43.430000 6.500000 -575.710000
-42.900000 6.500000 -575.750000
-42.380000 6.500000 -575.800000
-41.860000 6.500000 -575.860000
-41.330000 6.500000 -575.880000
-40.810000 6.500000 -575.970000
-40.290000 6.500000 -576.010000
-39.760000 6.500000 -576.110000
-39.240000 6.500000 -576.220000
-38.720000 6.500000 -576.290000
-38.190000 6.500000 -576.310000
-37.670000 6.500000 -576.400000
-37.150000 6.500000 -576.450000
-36.620000 6.500000 -576.460000
-36.090000 6.500000 -576.490000
-35.570000 6.500000 -576.490000
-35.030000 6.500000 -576.420000
-34.500000 6.500000 -576.380000
-33.970000 6.500000 -576.290000
-33.440000 6.500000 -576.270000
-32.910000 6.500000 -576.190000
-32.380000 6.500000 -576.150000
-31.840000 6.500000 -575.980000
-31.310000 6.500000 -575.880000
-30.770000 6.500000 -575.800000
-30.230000 6.490000 -575.510000
-29.690000 6.490000 -575.280000
-29.160000 6.490000 -575.200000
-28.620000 6.490000 -574.990000
-28.090000 6.480000 -574.750000
-27.550000 6.480000 -574.500000
-27.010000 6.480000 -574.340000
-26.480000 6.480000 -574.100000
-25.940000 6.470000 -573.860000
-25.400000 6.470000 -573.650000
-24.870000 6.470000 -573.550000
-24.350000 6.470000 -573.500000
-23.820000 6.470000 -573.410000
-23.290000 6.470000 -573.370000
-22.770000 6.470000 -573.440000
-22.240000 6.470000 -573.450000
-21.720000 6.470000 -573.530000
-21.200000 6.470000 -573.710000
-20.690000 6.470000 -573.920000
-20.170000 6.480000 -574.220000
-19.660000 6.480000 -574.530000
-19.130000 6.480000 -574.700000
-18.610000 6.480000 -574.800000
-18.090000 6.490000 -574.930000
-17.560000 6.480000 -574.790000
-17.030000 6.480000 -574.730000
-16.510000 6.480000 -574.810000
-15.990000 6.490000 -575.030000
-15.470000 6.490000 -575.280000
-14.940000 6.490000 -575.390000
-14.420000 6.490000 -575.490000
-13.890000 6.490000 -575.520000
-13.360000 6.490000 -575.460000
-12.840000 6.490000 -575.450000
-12.310000 6.490000 -575.500000
-11.790000 6.490000 -575.700000
-11.260000 6.500000 -575.860000
-10.740000 6.500000 -576.240000
-10.220000 6.500000 -576.530000
-9.700000 6.510000 -576.930000
-9.180000 6.520000 -577.460000
-8.660000 6.520000 -578.120000
-8.140000 6.530000 -578.920000
-7.620000 6.540000 -579.340000
-7.090000 6.540000 -579.370000
-6.550000 6.530000 -579.150000
-6.020000 6.530000 -578.930000
-5.490000 6.530000 -578.910000
-4.960000 6.530000 -578.750000
-4.430000 6.530000 -578.640000
-3.900000 6.530000 -578.690000
-3.370000 6.530000 -578.760000
-2.840000 6.530000 -578.840000
-2.310000 6.530000 -578.890000
-1.780000 6.530000 -578.990000
-1.250000 6.530000 -579.030000
-0.720000 6.530000 -579.060000
-0.190000 6.530000 -579.160000
0.340000 6.540000 -579.210000
0.870000 6.540000 -579.390000
1.400000 6.540000 -579.560000
1.940000 6.540000 -579.890000
2.470000 6.550000 -580.270000
-164.260000 5.820000 -561.450000
-163.970000 5.830000 -562.210000
-163.560000 5.830000 -562.580000
-163.100000 5.830000 -562.730000
-162.550000 5.830000 -562.640000
-161.970000 5.830000 -562.420000
-161.430000 5.830000 -562.310000
-160.870000 5.830000 -562.150000
-160.370000 5.830000 -562.210000
-159.900000 5.830000 -562.380000
-159.470000 5.830000 -562.680000
-159.070000 5.840000 -563.050000
-158.690000 5.840000 -563.520000
-158.240000 5.850000 -563.770000
-157.760000 5.850000 -563.890000
-157.280000 5.850000 -564.000000
-156.790000 5.850000 -564.120000
-156.320000 5.850000 -564.260000
-155.890000 5.850000 -564.570000
-155.640000 5.860000 -565.540000
-156.410000 5.910000 -570.170000
-156.100000 5.920000 -570.940000
-155.600000 5.920000 -571.010000
-155.140000 5.930000 -571.250000
-154.640000 5.930000 -571.310000
-154.120000 5.930000 -571.330000
-153.610000 5.930000 -571.390000
-153.150000 5.930000 -571.610000
-152.640000 5.930000 -571.680000
-152.200000 5.930000 -571.980000
-151.780000 5.940000 -572.350000
-151.470000 5.950000 -573.150000
-152.260000 6.000000 -578.080000
-151.940000 6.010000 -578.870000
-151.480000 6.010000 -579.110000
-151.050000 6.010000 -579.500000
-150.660000 6.020000 -580.030000
-150.570000 6.040000 -581.700000
-151.260000 6.080000 -586.380000
-150.980000 6.100000 -587.370000
-150.640000 6.100000 -588.150000
-150.340000 6.110000 -589.060000
-150.010000 6.120000 -589.870000
-149.780000 6.130000 -591.070000
-149.490000 6.140000 -592.050000
-149.720000 6.180000 -595.080000
-149.690000 6.200000 -597.120000
-150.480000 6.280000 -604.580000
-150.110000 6.280000 -605.310000
-149.840000 6.300000 -606.440000
-150.690000 6.360000 -612.090000
-150.320000 6.360000 -612.850000
-149.820000 6.370000 -613.080000
-149.370000 6.370000 -613.550000
-149.020000 6.380000 -614.430000
-139.060000 6.070000 -584.830000
-138.660000 6.070000 -585.420000
-138.210000 6.080000 -585.760000
-137.740000 6.080000 -586.030000
-137.220000 6.080000 -586.110000
-136.440000 6.070000 -585.090000
-135.510000 6.050000 -583.450000
-134.920000 6.050000 -583.210000
-134.420000 6.050000 -583.360000
-133.910000 6.050000 -583.450000
-133.380000 6.050000 -583.470000
-132.780000 6.050000 -583.180000
-132.150000 6.050000 -582.790000
-131.640000 6.050000 -582.900000
-131.160000 6.050000 -583.130000
-130.680000 6.050000 -583.360000
-130.180000 6.050000 -583.510000
-129.710000 6.060000 -583.820000
-129.210000 6.060000 -583.980000
-128.680000 6.060000 -583.970000
-128.060000 6.060000 -583.630000
-127.440000 6.050000 -583.220000
-126.940000 6.050000 -583.390000
-126.440000 6.050000 -583.540000
-125.940000 6.060000 -583.710000
-125.490000 6.060000 -584.110000
-125.050000 6.060000 -584.530000
-124.590000 6.070000 -584.910000
-124.060000 6.070000 -584.920000
-123.380000 6.060000 -584.280000
-122.590000 6.050000 -583.060000
-121.670000 6.030000 -581.260000
-120.730000 6.010000 -579.320000
-119.500000 5.980000 -576.020000
-118.750000 5.960000 -574.970000
-118.060000 5.960000 -574.170000
-117.420000 5.950000 -573.660000
-116.750000 5.940000 -572.960000
-116.110000 5.940000 -572.400000
-115.490000 5.930000 -571.940000
-114.870000 5.930000 -571.440000
-114.250000 5.920000 -570.990000
-113.650000 5.920000 -570.590000
-113.040000 5.910000 -570.150000
-112.450000 5.910000 -569.850000
-111.860000 5.910000 -569.490000
-111.280000 5.900000 -569.200000
-110.710000 5.900000 -568.950000
-110.130000 5.900000 -568.670000
-109.570000 5.900000 -568.460000
-109.000000 5.890000 -568.220000
-108.430000 5.890000 -567.960000
-107.860000 5.890000 -567.720000
-107.290000 5.880000 -567.470000
-106.720000 5.880000 -567.220000
-106.170000 5.880000 -567.020000
-105.600000 5.880000 -566.770000
-105.040000 5.880000 -566.570000
-104.480000 5.870000 -566.370000
-103.920000 5.870000 -566.140000
-103.360000 5.870000 -565.890000
-102.810000 5.870000 -565.740000
-102.260000 5.860000 -565.560000
-101.710000 5.860000 -565.370000
-101.190000 5.860000 -565.380000
-100.630000 5.860000 -565.150000
-100.100000 5.860000 -565.090000
-99.550000 5.860000 -564.920000
-99.020000 5.860000 -564.840000
-98.470000 5.860000 -564.690000
-97.940000 5.850000 -564.570000
-97.410000 5.850000 -564.530000
-96.880000 5.850000 -564.440000
-96.340000 5.850000 -564.300000
-95.830000 5.850000 -564.350000
-95.300000 5.850000 -564.310000
-94.780000 5.850000 -564.270000
-94.260000 5.850000 -564.240000
-93.740000 5.850000 -564.270000
-93.230000 5.850000 -564.290000
-92.700000 5.850000 -564.240000
-92.190000 5.850000 -564.280000
-91.690000 5.850000 -564.350000
-91.160000 5.850000 -564.310000
-90.650000 5.850000 -564.340000
-90.150000 5.850000 -564.410000
-89.650000 5.850000 -564.530000
-89.130000 5.850000 -564.500000
-88.620000 5.850000 -564.600000
-88.120000 5.850000 -564.660000
-87.610000 5.860000 -564.740000
-87.100000 5.860000 -564.760000
-86.580000 5.860000 -564.790000
-86.080000 5.860000 -564.910000
-85.570000 5.860000 -564.930000
-85.060000 5.860000 -565.000000
-84.560000 5.860000 -565.120000
-84.060000 5.860000 -565.240000
-83.550000 5.860000 -565.300000
-83.050000 5.860000 -565.410000
-82.550000 5.860000 -565.550000
-82.050000 5.860000 -565.650000
-81.540000 5.860000 -565.710000
-81.040000 5.870000 -565.850000
-80.540000 5.870000 -565.940000
-80.040000 5.870000 -566.080000
-79.530000 5.870000 -566.190000
-79.040000 5.870000 -566.330000
-78.540000 5.870000 -566.480000
-78.040000 5.870000 -566.620000
-77.520000 5.870000 -566.640000
-77.020000 5.880000 -566.770000
-76.520000 5.880000 -566.910000
-76.020000 5.880000 -567.080000
-75.520000 5.880000 -567.210000
-75.020000 5.880000 -567.320000
-74.520000 5.880000 -567.480000
-74.020000 5.880000 -567.620000
-73.500000 5.880000 -567.650000
-72.990000 5.890000 -567.770000
-72.480000 5.890000 -567.800000
-71.950000 5.890000 -567.760000
-71.430000 5.890000 -567.770000
-70.920000 5.890000 -567.860000
-70.410000 5.890000 -567.880000
-69.900000 5.890000 -567.970000
-69.390000 5.890000 -568.060000
-68.890000 5.890000 -568.270000
-68.380000 5.890000 -568.300000
-67.880000 5.890000 -568.490000
-67.370000 5.890000 -568.610000
-66.870000 5.900000 -568.800000
-66.370000 5.900000 -568.970000
-65.870000 5.900000 -569.140000
-65.370000 5.900000 -569.330000
-64.880000 5.910000 -569.600000
-64.380000 5.910000 -569.760000
-63.880000 5.910000 -569.960000
-63.370000 5.910000 -570.100000
-62.880000 5.910000 -570.410000
-62.380000 5.920000 -570.580000
-61.870000 5.920000 -570.690000
-61.370000 5.920000 -570.930000
-60.870000 5.920000 -571.140000
-60.370000 5.920000 -571.310000
-59.860000 5.920000 -571.470000
-59.360000 5.930000 -571.670000
-58.840000 5.930000 -571.710000
-58.330000 5.930000 -571.870000
-57.830000 5.930000 -572.080000
-57.320000 5.930000 -572.260000
-56.810000 5.930000 -572.410000
-56.300000 5.940000 -572.580000
-55.790000 5.940000 -572.710000
-55.280000 5.940000 -572.880000
-54.780000 5.940000 -573.070000
-54.260000 5.940000 -573.180000
-53.760000 5.940000 -573.400000
-53.240000 5.940000 -573.430000
-52.730000 5.950000 -573.620000
-52.220000 5.950000 -573.770000
-51.700000 5.950000 -573.890000
-51.190000 5.950000 -574.060000
-50.680000 5.950000 -574.220000
-50.160000 5.950000 -574.290000
-49.640000 5.950000 -574.340000
-49.130000 5.960000 -574.520000
-48.610000 5.960000 -574.620000
-48.090000 5.960000 -574.700000
-47.580000 5.960000 -574.840000
-47.060000 5.960000 -574.940000
-46.540000 5.960000 -575.050000
-46.020000 5.960000 -575.150000
-45.500000 5.960000 -575.290000
-44.990000 5.970000 -575.400000
-44.470000 5.970000 -575.500000
-43.950000 5.970000 -575.610000
-43.420000 5.970000 -575.630000
-42.900000 5.970000 -575.680000
-42.380000 5.970000 -575.760000
-41.860000 5.970000 -575.850000
-41.330000 5.970000 -575.890000
-40.810000 5.970000 -575.980000
-40.290000 5.970000 -576.030000
-39.760000 5.970000 -576.050000
-39.240000 5.970000 -576.200000
-38.720000 5.970000 -576.210000
-38.190000 5.970000 -576.290000
-37.670000 5.970000 -576.340000
-37.140000 5.970000 -576.310000
-36.620000 5.980000 -576.390000
-36.090000 5.980000 -576.440000
-35.560000 5.980000 -576.410000
-35.030000 5.980000 -576.370000
-34.500000 5.970000 -576.260000
-33.970000 5.970000 -576.260000
-33.440000 5.970000 -576.230000
-32.900000 5.970000 -576.090000
-32.370000 5.970000 -575.980000
-31.830000 5.970000 -575.810000
-31.300000 5.970000 -575.660000
-30.760000 5.970000 -575.520000
-30.220000 5.960000 -575.250000
-29.680000 5.960000 -575.120000
-29.150000 5.960000 -574.970000
-28.610000 5.960000 -574.790000
-28.080000 5.960000 -574.560000
-27.540000 5.950000 -574.310000
-27.000000 5.950000 -574.130000
-26.470000 5.950000 -573.910000
-25.930000 5.950000 -573.740000
-25.400000 5.950000 -573.540000
-24.870000 5.940000 -573.430000
-24.340000 5.940000 -573.370000
-23.810000 5.940000 -573.240000
-23.290000 5.940000 -573.240000
-22.760000 5.940000 -573.170000
-22.240000 5.940000 -573.270000
-21.710000 5.940000 -573.360000
-21.190000 5.940000 -573.480000
-20.680000 5.950000 -573.680000
-20.160000 5.950000 -574.060000
-19.640000 5.950000 -574.230000
-19.130000 5.960000 -574.530000
-18.610000 5.960000 -574.610000
-18.080000 5.960000 -574.730000
-17.550000 5.960000 -574.680000
-17.030000 5.960000 -574.620000
-16.500000 5.960000 -574.640000
-15.980000 5.960000 -574.810000
-15.460000 5.960000 -575.120000
-14.940000 5.960000 -575.210000
-14.410000 5.960000 -575.310000
-13.890000 5.960000 -575.300000
-13.360000 5.960000 -575.250000
-12.830000 5.960000 -575.270000
-12.310000 5.960000 -575.310000
-11.780000 5.960000 -575.420000
-11.260000 5.970000 -575.630000
-10.740000 5.970000 -575.940000
-10.220000 5.970000 -576.300000
-9.690000 5.980000 -576.670000
-9.170000 5.980000 -577.130000
-8.660000 5.990000 -577.840000
-8.140000 6.000000 -578.550000
-7.610000 6.000000 -579.070000
-7.080000 6.000000 -579.090000
-6.550000 6.000000 -578.840000
-6.020000 6.000000 -578.670000
-5.490000 6.000000 -578.560000
-4.960000 6.000000 -578.430000
-4.430000 6.000000 -578.390000
-3.900000 6.000000 -578.380000
-3.370000 6.000000 -578.460000
-2.840000 6.000000 -578.510000
-2.310000 6.000000 -578.630000
-1.780000 6.000000 -578.760000
-1.250000 6.000000 -578.720000
-0.720000 6.000000 -578.790000
-0.190000 6.000000 -578.940000
0.340000 6.000000 -579.090000
0.870000 6.000000 -579.150000
1.400000 6.010000 -579.340000
1.940000 6.010000 -579.500000
2.470000 6.010000 -579.860000
3.000000 6.020000 -580.230000
-164.310000 5.310000 -561.620000
-164.050000 5.320000 -562.490000
-163.650000 5.320000 -562.870000
-163.150000 5.320000 -562.920000
-162.640000 5.320000 -562.930000
-162.070000 5.320000 -562.760000
-161.500000 5.320000 -562.540000
-160.940000 5.320000 -562.420000
-160.440000 5.320000 -562.470000
-159.980000 5.320000 -562.660000
-159.540000 5.320000 -562.910000
-159.130000 5.320000 -563.280000
-158.690000 5.330000 -563.540000
-158.260000 5.330000 -563.830000
-157.770000 5.330000 -563.940000
-157.250000 5.330000 -563.930000
-156.760000 5.330000 -564.020000
-156.310000 5.330000 -564.240000
-155.860000 5.340000 -564.490000
-156.430000 5.370000 -568.380000
-156.460000 5.390000 -570.340000
-156.100000 5.400000 -570.910000
-155.630000 5.400000 -571.120000
-155.130000 5.400000 -571.190000
-154.630000 5.400000 -571.280000
-154.120000 5.400000 -571.340000
-153.630000 5.400000 -571.440000
-153.140000 5.400000 -571.570000
-152.690000 5.410000 -571.850000
-152.270000 5.410000 -572.210000
-151.880000 5.420000 -572.740000
-151.800000 5.430000 -574.390000
-152.510000 5.480000 -579.000000
-151.980000 5.480000 -578.990000
-151.510000 5.480000 -579.240000
-151.080000 5.480000 -579.630000
-150.690000 5.490000 -580.160000
-150.790000 5.510000 -582.560000
-151.370000 5.550000 -586.790000
-151.060000 5.560000 -587.660000
-150.720000 5.570000 -588.460000
-150.410000 5.580000 -589.310000
-150.130000 5.590000 -590.330000
-149.940000 5.600000 -591.690000
-149.750000 5.610000 -593.060000
-150.060000 5.640000 -596.400000
-150.000000 5.660000 -598.340000
-150.510000 5.720000 -604.700000
-150.170000 5.730000 -605.540000
-150.850000 5.780000 -610.480000
-150.840000 5.800000 -612.680000
-150.330000 5.800000 -612.900000
-149.840000 5.800000 -613.170000
-149.400000 5.810000 -613.670000
-149.020000 5.820000 -614.410000
-138.150000 5.540000 -585.540000
-137.720000 5.540000 -585.950000
-137.240000 5.550000 -586.200000
-136.750000 5.550000 -586.410000
-136.040000 5.540000 -585.660000
-135.100000 5.520000 -583.970000
-134.460000 5.520000 -583.510000
-133.960000 5.520000 -583.660000
-133.450000 5.520000 -583.770000
-132.930000 5.520000 -583.820000
-132.330000 5.520000 -583.570000
-131.690000 5.520000 -583.110000
-131.160000 5.520000 -583.150000
-130.680000 5.520000 -583.360000
-130.200000 5.520000 -583.630000
-129.730000 5.520000 -583.880000
-129.220000 5.520000 -584.040000
-128.730000 5.530000 -584.220000
-128.190000 5.530000 -584.200000
-127.540000 5.520000 -583.690000
-126.980000 5.520000 -583.570000
-126.480000 5.520000 -583.720000
-125.970000 5.520000 -583.860000
-125.510000 5.530000 -584.190000
-125.050000 5.530000 -584.560000
-124.630000 5.530000 -585.090000
-124.160000 5.540000 -585.410000
-123.660000 5.540000 -585.550000
-122.980000 5.530000 -584.880000
-122.120000 5.520000 -583.370000
-121.220000 5.500000 -581.660000
-120.130000 5.480000 -579.000000
-119.090000 5.450000 -576.560000
-118.240000 5.440000 -575.020000
-117.570000 5.430000 -574.340000
-116.920000 5.430000 -573.750000
-116.290000 5.420000 -573.240000
-115.630000 5.410000 -572.600000
-115.000000 5.410000 -572.090000
-114.370000 5.400000 -571.580000
-113.760000 5.400000 -571.160000
-113.150000 5.400000 -570.720000
-112.550000 5.390000 -570.320000
-111.960000 5.390000 -570.010000
-111.390000 5.390000 -569.750000
-110.800000 5.380000 -569.410000
-110.230000 5.380000 -569.180000
-109.650000 5.380000 -568.900000
-109.080000 5.380000 -568.630000
-108.500000 5.370000 -568.330000
-107.930000 5.370000 -568.060000
-107.360000 5.370000 -567.810000
-106.800000 5.370000 -567.600000
-106.220000 5.360000 -567.300000
-105.660000 5.360000 -567.110000
-105.090000 5.360000 -566.840000
-104.540000 5.360000 -566.660000
-103.970000 5.350000 -566.380000
-103.400000 5.350000 -566.120000
-102.850000 5.350000 -565.950000
-102.310000 5.350000 -565.820000
-101.760000 5.350000 -565.690000
-101.210000 5.350000 -565.510000
-100.670000 5.340000 -565.380000
-100.130000 5.340000 -565.260000
-99.590000 5.340000 -565.130000
-99.050000 5.340000 -564.990000
-98.500000 5.340000 -564.830000
-97.970000 5.340000 -564.740000
-97.430000 5.340000 -564.660000
-96.910000 5.340000 -564.630000
-96.370000 5.340000 -564.480000
-95.850000 5.340000 -564.490000
-95.320000 5.330000 -564.410000
-94.800000 5.330000 -564.370000
-94.280000 5.330000 -564.400000
-93.760000 5.330000 -564.350000
-93.240000 5.330000 -564.340000
-92.720000 5.330000 -564.350000
-92.210000 5.330000 -564.360000
-91.700000 5.340000 -564.450000
-91.190000 5.340000 -564.460000
-90.670000 5.340000 -564.470000
-90.160000 5.340000 -564.470000
-89.650000 5.340000 -564.520000
-89.130000 5.340000 -564.560000
-88.640000 5.340000 -564.680000
-88.120000 5.340000 -564.710000
-87.610000 5.340000 -564.760000
-87.100000 5.340000 -564.770000
-86.590000 5.340000 -564.830000
-86.090000 5.340000 -564.970000
-85.580000 5.340000 -564.980000
-85.070000 5.340000 -565.070000
-84.570000 5.340000 -565.190000
-84.060000 5.340000 -565.240000
-83.560000 5.340000 -565.320000
-83.050000 5.340000 -565.430000
-82.550000 5.350000 -565.530000
-82.050000 5.350000 -565.650000
-81.550000 5.350000 -565.760000
-81.040000 5.350000 -565.850000
-80.540000 5.350000 -565.970000
-80.040000 5.350000 -566.130000
-79.540000 5.350000 -566.250000
-79.030000 5.350000 -566.300000
-78.530000 5.350000 -566.460000
-78.030000 5.350000 -566.580000
-77.530000 5.360000 -566.670000
-77.020000 5.360000 -566.740000
-76.520000 5.360000 -566.900000
-76.020000 5.360000 -567.030000
-75.520000 5.360000 -567.190000
-75.010000 5.360000 -567.300000
-74.510000 5.360000 -567.410000
-74.000000 5.360000 -567.500000
-73.490000 5.360000 -567.620000
-72.980000 5.360000 -567.640000
-72.470000 5.370000 -567.730000
-71.950000 5.370000 -567.740000
-71.440000 5.370000 -567.830000
-70.940000 5.370000 -567.960000
-70.420000 5.370000 -567.960000
-69.900000 5.370000 -567.990000
-69.390000 5.370000 -568.100000
-68.880000 5.370000 -568.200000
-68.380000 5.370000 -568.310000
-67.880000 5.370000 -568.480000
-67.380000 5.370000 -568.650000
-66.880000 5.380000 -568.820000
-66.370000 5.380000 -568.980000
-65.880000 5.380000 -569.210000
-65.370000 5.380000 -569.330000
-64.880000 5.380000 -569.550000
-64.380000 5.380000 -569.770000
-63.870000 5.390000 -569.920000
-63.370000 5.390000 -570.100000
-62.870000 5.390000 -570.270000
-62.370000 5.390000 -570.460000
-61.870000 5.390000 -570.680000
-61.360000 5.390000 -570.810000
-60.860000 5.400000 -571.020000
-60.350000 5.400000 -571.150000
-59.850000 5.400000 -571.360000
-59.340000 5.400000 -571.500000
-58.840000 5.400000 -571.750000
-58.330000 5.410000 -571.890000
-57.830000 5.410000 -572.070000
-57.310000 5.410000 -572.170000
-56.800000 5.410000 -572.310000
-56.290000 5.410000 -572.480000
-55.790000 5.410000 -572.720000
-55.280000 5.410000 -572.830000
-54.770000 5.420000 -572.980000
-54.260000 5.420000 -573.140000
-53.750000 5.420000 -573.260000
-53.240000 5.420000 -573.440000
-52.720000 5.420000 -573.560000
-52.210000 5.420000 -573.670000
-51.690000 5.420000 -573.810000
-51.180000 5.420000 -573.900000
-50.670000 5.430000 -574.080000
-50.150000 5.430000 -574.210000
-49.640000 5.430000 -574.340000
-49.120000 5.430000 -574.450000
-48.600000 5.430000 -574.520000
-48.080000 5.430000 -574.610000
-47.570000 5.430000 -574.770000
-47.050000 5.430000 -574.900000
-46.530000 5.430000 -574.980000
-46.020000 5.440000 -575.140000
-45.510000 5.440000 -575.310000
-44.990000 5.440000 -575.420000
-44.460000 5.440000 -575.430000
-43.940000 5.440000 -575.500000
-43.420000 5.440000 -575.660000
-42.900000 5.440000 -575.710000
-42.380000 5.440000 -575.750000
-41.860000 5.440000 -575.910000
-41.330000 5.440000 -575.910000
-40.810000 5.440000 -575.950000
-40.280000 5.440000 -576.000000
-39.760000 5.440000 -576.090000
-39.240000 5.450000 -576.190000
-38.720000 5.450000 -576.260000
-38.190000 5.450000 -576.270000
-37.670000 5.450000 -576.310000
-37.140000 5.450000 -576.370000
-36.620000 5.450000 -576.450000
-36.090000 5.450000 -576.380000
-35.550000 5.450000 -576.270000
-35.030000 5.450000 -576.310000
-34.490000 5.450000 -576.220000
-33.970000 5.450000 -576.240000
-33.430000 5.450000 -576.150000
-32.900000 5.440000 -575.980000
-32.360000 5.440000 -575.790000
-31.820000 5.440000 -575.570000
-31.290000 5.440000 -575.550000
-30.760000 5.440000 -575.500000
-30.230000 5.440000 -575.420000
-29.690000 5.440000 -575.240000
-29.150000 5.430000 -574.990000
-28.610000 5.430000 -574.670000
-28.070000 5.430000 -574.420000
-27.530000 5.430000 -574.220000
-27.000000 5.420000 -574.040000
-26.460000 5.420000 -573.850000
-25.930000 5.420000 -573.620000
-25.390000 5.420000 -573.450000
-24.860000 5.420000 -573.280000
-24.330000 5.420000 -573.170000
-23.800000 5.420000 -573.090000
-23.280000 5.410000 -573.040000
-22.750000 5.410000 -573.000000
-22.230000 5.410000 -573.030000
-21.710000 5.420000 -573.140000
-21.190000 5.420000 -573.300000
-20.670000 5.420000 -573.480000
-20.160000 5.420000 -573.810000
-19.640000 5.420000 -574.090000
-19.120000 5.430000 -574.320000
-18.600000 5.430000 -574.570000
-18.080000 5.430000 -574.630000
-17.550000 5.430000 -574.660000
-17.030000 5.430000 -574.630000
-16.500000 5.430000 -574.700000
-15.980000 5.430000 -574.960000
-15.460000 5.430000 -574.950000
-14.930000 5.430000 -575.060000
-14.410000 5.440000 -575.150000
-13.880000 5.430000 -575.020000
-13.350000 5.430000 -575.020000
-12.830000 5.430000 -575.030000
-12.300000 5.430000 -575.130000
-11.780000 5.440000 -575.250000
-11.250000 5.440000 -575.400000
-10.730000 5.440000 -575.650000
-10.210000 5.440000 -576.010000
-9.690000 5.450000 -576.490000
-9.170000 5.450000 -576.890000
-8.650000 5.460000 -577.520000
-8.130000 5.470000 -578.300000
-7.610000 5.470000 -578.770000
-7.080000 5.470000 -578.790000
-6.550000 5.470000 -578.510000
-6.010000 5.470000 -578.400000
-5.480000 5.460000 -578.270000
-4.950000 5.460000 -578.220000
-4.420000 5.460000 -578.100000
-3.890000 5.460000 -578.120000
-3.360000 5.460000 -578.150000
-2.840000 5.460000 -578.230000
-2.310000 5.470000 -578.300000
-1.780000 5.470000 -578.370000
-1.250000 5.470000 -578.450000
-0.720000 5.470000 -578.590000
-0.190000 5.470000 -578.700000
0.340000 5.470000 -578.800000
0.870000 5.470000 -579.050000
1.400000 5.470000 -579.190000
1.940000 5.480000 -579.370000
2.470000 5.480000 -579.620000
3.000000 5.480000 -580.100000
-164.410000 4.800000 -561.960000
-164.140000 4.800000 -562.800000
-163.720000 4.810000 -563.090000
-163.220000 4.810000 -563.170000
-162.690000 4.810000 -563.110000
-162.130000 4.810000 -562.950000
-161.570000 4.800000 -562.820000
-161.020000 4.800000 -562.680000
-160.540000 4.800000 -562.810000
-160.060000 4.810000 -562.940000
-159.590000 4.810000 -563.060000
-159.140000 4.810000 -563.290000
-158.710000 4.810000 -563.600000
-158.250000 4.810000 -563.780000
-157.780000 4.810000 -563.970000
-157.260000 4.810000 -563.940000
-156.770000 4.820000 -564.030000
-156.300000 4.820000 -564.190000
-155.950000 4.820000 -564.780000
-156.790000 4.860000 -569.650000
-156.480000 4.870000 -570.400000
-156.100000 4.880000 -570.920000
-155.610000 4.880000 -571.040000
-155.150000 4.880000 -571.270000
-154.630000 4.880000 -571.280000
-154.130000 4.880000 -571.350000
-153.620000 4.880000 -571.410000
-153.150000 4.880000 -571.590000
-152.690000 4.880000 -571.850000
-152.310000 4.890000 -572.360000
-151.880000 4.890000 -572.730000
-152.720000 4.940000 -577.820000
-152.490000 4.940000 -578.940000
-152.010000 4.950000 -579.100000
-151.540000 4.950000 -579.350000
-151.130000 4.950000 -579.780000
-150.730000 4.960000 -580.290000
-151.010000 4.980000 -583.370000
-151.460000 5.020000 -587.130000
-151.150000 5.020000 -588.030000
-150.790000 5.030000 -588.730000
-150.460000 5.040000 -589.530000
-150.220000 5.050000 -590.690000
-150.190000 5.060000 -592.680000
-150.270000 5.090000 -595.120000
-150.210000 5.100000 -597.010000
-149.910000 5.110000 -597.990000
-150.590000 5.170000 -605.010000
-150.230000 5.180000 -605.800000
-151.230000 5.230000 -612.000000
-150.850000 5.240000 -612.730000
-150.340000 5.240000 -612.920000
-149.840000 5.240000 -613.190000
-149.440000 5.250000 -613.830000
-149.030000 5.250000 -614.470000
-137.670000 5.000000 -585.770000
-137.240000 5.010000 -586.190000
-136.760000 5.010000 -586.430000
-136.300000 5.010000 -586.770000
-135.620000 5.010000 -586.170000
-134.700000 4.990000 -584.550000
-133.990000 4.990000 -583.780000
-133.490000 4.990000 -583.960000
-133.000000 4.990000 -584.150000
-132.460000 4.990000 -584.120000
-131.830000 4.990000 -583.730000
-131.200000 4.980000 -583.310000
-130.700000 4.980000 -583.460000
-130.200000 4.990000 -583.590000
-129.710000 4.990000 -583.800000
-129.220000 4.990000 -584.010000
-128.740000 4.990000 -584.240000
-128.240000 4.990000 -584.430000
-127.700000 4.990000 -584.410000
-127.050000 4.990000 -583.890000
-126.510000 4.990000 -583.850000
-126.010000 4.990000 -584.050000
-125.520000 4.990000 -584.260000
-125.070000 4.990000 -584.620000
-124.620000 5.000000 -585.020000
-124.180000 5.000000 -585.480000
-123.750000 5.010000 -585.980000
-123.230000 5.010000 -586.060000
-122.530000 5.000000 -585.300000
-121.630000 4.980000 -583.570000
-120.610000 4.970000 -581.310000
-119.530000 4.940000 -578.670000
-118.550000 4.920000 -576.540000
-117.750000 4.910000 -575.210000
-117.060000 4.910000 -574.450000
-116.410000 4.900000 -573.860000
-115.770000 4.900000 -573.270000
-115.140000 4.890000 -572.770000
-114.510000 4.890000 -572.260000
-113.870000 4.880000 -571.710000
-113.250000 4.880000 -571.220000
-112.640000 4.870000 -570.780000
-112.050000 4.870000 -570.450000
-111.460000 4.870000 -570.130000
-110.870000 4.860000 -569.770000
-110.310000 4.860000 -569.580000
-109.720000 4.860000 -569.220000
-109.150000 4.860000 -568.980000
-108.560000 4.850000 -568.620000
-108.000000 4.850000 -568.430000
-107.430000 4.850000 -568.170000
-106.860000 4.850000 -567.930000
-106.290000 4.850000 -567.670000
-105.710000 4.840000 -567.360000
-105.140000 4.840000 -567.080000
-104.570000 4.840000 -566.850000
-104.010000 4.840000 -566.590000
-103.440000 4.830000 -566.350000
-102.890000 4.830000 -566.170000
-102.340000 4.830000 -566.000000
-101.800000 4.830000 -565.890000
-101.250000 4.830000 -565.700000
-100.700000 4.830000 -565.530000
-100.170000 4.830000 -565.460000
-99.630000 4.830000 -565.340000
-99.080000 4.820000 -565.210000
-98.540000 4.820000 -565.070000
-98.000000 4.820000 -564.950000
-97.460000 4.820000 -564.790000
-96.940000 4.820000 -564.770000
-96.400000 4.820000 -564.680000
-95.870000 4.820000 -564.600000
-95.340000 4.820000 -564.550000
-94.820000 4.820000 -564.520000
-94.300000 4.820000 -564.480000
-93.790000 4.820000 -564.530000
-93.260000 4.820000 -564.500000
-92.730000 4.820000 -564.410000
-92.210000 4.820000 -564.380000
-91.700000 4.820000 -564.430000
-91.200000 4.820000 -564.500000
-90.680000 4.820000 -564.500000
-90.170000 4.820000 -564.560000
-89.650000 4.820000 -564.520000
-89.140000 4.820000 -564.610000
-88.630000 4.820000 -564.620000
-88.120000 4.820000 -564.660000
-87.620000 4.820000 -564.810000
-87.100000 4.820000 -564.820000
-86.590000 4.820000 -564.840000
-86.080000 4.820000 -564.880000
-85.580000 4.820000 -564.990000
-85.080000 4.820000 -565.110000
-84.570000 4.820000 -565.180000
-84.060000 4.820000 -565.230000
-83.550000 4.830000 -565.310000
-83.050000 4.830000 -565.430000
-82.550000 4.830000 -565.520000
-82.050000 4.830000 -565.660000
-81.540000 4.830000 -565.740000
-81.040000 4.830000 -565.830000
-80.540000 4.830000 -565.960000
-80.040000 4.830000 -566.090000
-79.540000 4.830000 -566.230000
-79.030000 4.830000 -566.320000
-78.530000 4.830000 -566.420000
-78.020000 4.840000 -566.480000
-77.520000 4.840000 -566.600000
-77.010000 4.840000 -566.710000
-76.520000 4.840000 -566.900000
-76.010000 4.840000 -567.020000
-75.510000 4.840000 -567.110000
-75.000000 4.840000 -567.240000
-74.490000 4.840000 -567.310000
-73.990000 4.840000 -567.440000
-73.490000 4.840000 -567.550000
-72.970000 4.840000 -567.620000
-72.460000 4.840000 -567.650000
-71.950000 4.850000 -567.720000
-71.440000 4.850000 -567.830000
-70.940000 4.850000 -567.950000
-70.430000 4.850000 -568.030000
-69.910000 4.850000 -568.050000
-69.400000 4.850000 -568.140000
-68.890000 4.850000 -568.290000
-68.390000 4.850000 -568.450000
-67.880000 4.850000 -568.520000
-67.380000 4.850000 -568.670000
-66.880000 4.860000 -568.840000
-66.370000 4.860000 -568.970000
-65.870000 4.860000 -569.170000
-65.370000 4.860000 -569.330000
-64.860000 4.860000 -569.460000
-64.360000 4.860000 -569.650000
-63.870000 4.860000 -569.860000
-63.370000 4.870000 -570.060000
-62.870000 4.870000 -570.270000
-62.360000 4.870000 -570.410000
-61.860000 4.870000 -570.590000
-61.350000 4.870000 -570.750000
-60.850000 4.870000 -570.980000
-60.350000 4.870000 -571.130000
-59.840000 4.880000 -571.270000
-59.340000 4.880000 -571.490000
-58.820000 4.880000 -571.580000
-58.320000 4.880000 -571.750000
-57.810000 4.880000 -571.930000
-57.300000 4.880000 -572.090000
-56.800000 4.880000 -572.260000
-56.280000 4.890000 -572.360000
-55.780000 4.890000 -572.560000
-55.270000 4.890000 -572.680000
-54.760000 4.890000 -572.900000
-54.240000 4.890000 -572.980000
-53.740000 4.890000 -573.150000
-53.220000 4.890000 -573.270000
-52.710000 4.890000 -573.430000
